2353.228905 -3388.939858 137.247084
2353.070076 -3390.369319 138.636838
2352.911247 -3391.798780 140.026592
2352.752418 -3393.228241 141.416345
2352.593589 -3394.657702 142.806099
2352.434760 -3396.087162 144.195852
2352.275931 -3397.516623 145.585606
2352.000000 -3400.000000 148.000000
2350.025357 -3400.317467 148.000000
2348.050714 -3400.634933 148.000000
2346.076071 -3400.952400 148.000000
2344.101428 -3401.269867 148.000000
2342.126785 -3401.587334 148.000000
2340.152142 -3401.904800 148.000000
2338.177499 -3402.222267 148.000000
2336.202856 -3402.539734 148.000000
2334.228213 -3402.857200 148.000000
2332.253570 -3403.174667 148.000000
2330.278927 -3403.492134 148.000000
2328.304284 -3403.809601 148.000000
2326.329641 -3404.127067 148.000000
2324.354998 -3404.444534 148.000000
2322.380355 -3404.762001 148.000000
2320.405712 -3405.079467 148.000000
2318.431069 -3405.396934 148.000000
2316.456426 -3405.714401 148.000000
2314.481783 -3406.031868 148.000000
2312.507140 -3406.349334 148.000000
2310.532497 -3406.666801 148.000000
2308.557855 -3406.984268 148.000000
2306.583212 -3407.301734 148.000000
2304.608569 -3407.619201 148.000000
2302.633926 -3407.936668 148.000000
2300.659283 -3408.254135 148.000000
2298.684640 -3408.571601 148.000000
2296.709997 -3408.889068 148.000000
2294.735354 -3409.206535 148.000000
2292.760711 -3409.524001 148.000000
2290.786068 -3409.841468 148.000000
2288.811425 -3410.158935 148.000000
2286.836782 -3410.476402 148.000000
2284.862139 -3410.793868 148.000000
2282.887496 -3411.111335 148.000000
2280.912853 -3411.428802 148.000000
2278.938210 -3411.746269 148.000000
2276.963567 -3412.063735 148.000000
2274.988924 -3412.381202 148.000000
2273.014281 -3412.698669 148.000000
2271.039638 -3413.016135 148.000000
2269.064995 -3413.333602 148.000000
2267.090352 -3413.651069 148.000000
2265.115709 -3413.968536 148.000000
2263.141066 -3414.286002 148.000000
2261.166423 -3414.603469 148.000000
2259.191780 -3414.920936 148.000000
2257.217137 -3415.238402 148.000000
2255.242494 -3415.555869 148.000000
2253.267851 -3415.873336 148.000000
2251.293208 -3416.190803 148.000000
2249.318565 -3416.508269 148.000000
2247.343922 -3416.825736 148.000000
2245.369279 -3417.143203 148.000000
2243.394636 -3417.460669 148.000000
2241.419993 -3417.778136 148.000000
2239.445350 -3418.095603 148.000000
2237.470707 -3418.413070 148.000000
2235.496064 -3418.730536 148.000000
2233.521421 -3419.048003 148.000000
2231.546778 -3419.365470 148.000000
2229.572135 -3419.682936 148.000000
2227.597492 -3420.000403 148.000000
2225.622850 -3420.317870 148.000000
2223.648207 -3420.635337 148.000000
2221.673564 -3420.952803 148.000000
2219.698921 -3421.270270 148.000000
2217.724278 -3421.587737 148.000000
2215.749635 -3421.905203 148.000000
2213.774992 -3422.222670 148.000000
2211.800349 -3422.540137 148.000000
2209.825706 -3422.857604 148.000000
2207.851063 -3423.175070 148.000000
2205.876420 -3423.492537 148.000000
2203.901777 -3423.810004 148.000000
2201.927134 -3424.127470 148.000000
2199.952491 -3424.444937 148.000000
2197.977848 -3424.762404 148.000000
2196.003205 -3425.079871 148.000000
2194.028562 -3425.397337 148.000000
2192.053919 -3425.714804 148.000000
2190.079276 -3426.032271 148.000000
2188.104633 -3426.349737 148.000000
2186.129990 -3426.667204 148.000000
2184.155347 -3426.984671 148.000000
2182.180704 -3427.302138 148.000000
2180.206061 -3427.619604 148.000000
2178.231418 -3427.937071 148.000000
2176.256775 -3428.254538 148.000000
2174.282132 -3428.572004 148.000000
2172.307489 -3428.889471 148.000000
2170.332846 -3429.206938 148.000000
2168.358203 -3429.524405 148.000000
2166.383560 -3429.841871 148.000000
2164.408917 -3430.159338 148.000000
2162.434274 -3430.476805 148.000000
2160.459631 -3430.794271 148.000000
2158.484988 -3431.111738 148.000000
2156.510345 -3431.429205 148.000000
2154.535702 -3431.746672 148.000000
2152.561059 -3432.064138 148.000000
2150.586416 -3432.381605 148.000000
2148.611773 -3432.699072 148.000000
2146.637130 -3433.016539 148.000000
2144.662487 -3433.334005 148.000000
2142.687845 -3433.651472 148.000000
2140.713202 -3433.968939 148.000000
2138.738559 -3434.286405 148.000000
2136.763916 -3434.603872 148.000000
2134.789273 -3434.921339 148.000000
2132.814630 -3435.238806 148.000000
2130.839987 -3435.556272 148.000000
2128.865344 -3435.873739 148.000000
2126.890701 -3436.191206 148.000000
2124.916058 -3436.508672 148.000000
2122.941415 -3436.826139 148.000000
2120.966772 -3437.143606 148.000000
2118.992129 -3437.461073 148.000000
2117.017486 -3437.778539 148.000000
2115.042843 -3438.096006 148.000000
2113.068200 -3438.413473 148.000000
2111.093557 -3438.730939 148.000000
2109.118914 -3439.048406 148.000000
2107.144271 -3439.365873 148.000000
2105.169628 -3439.683340 148.000000
2103.194985 -3440.000806 148.000000
2101.220342 -3440.318273 148.000000
2099.245699 -3440.635740 148.000000
2097.271056 -3440.953206 148.000000
2095.296413 -3441.270673 148.000000
2093.321770 -3441.588140 148.000000
2091.347127 -3441.905607 148.000000
2089.372484 -3442.223073 148.000000
2087.397841 -3442.540540 148.000000
2085.423198 -3442.858007 148.000000
2083.448555 -3443.175473 148.000000
2081.473912 -3443.492940 148.000000
2079.499269 -3443.810407 148.000000
2077.524626 -3444.127874 148.000000
2075.549983 -3444.445340 148.000000
2073.575340 -3444.762807 148.000000
2071.600697 -3445.080274 148.000000
2069.626054 -3445.397740 148.000000
2067.651411 -3445.715207 148.000000
2065.676768 -3446.032674 148.000000
2063.702125 -3446.350141 148.000000
2061.727482 -3446.667607 148.000000
2059.752840 -3446.985074 148.000000
2057.778197 -3447.302541 148.000000
2055.803554 -3447.620007 148.000000
2053.828911 -3447.937474 148.000000
2051.854268 -3448.254941 148.000000
2049.879625 -3448.572408 148.000000
2047.904982 -3448.889874 148.000000
2045.930339 -3449.207341 148.000000
2043.955696 -3449.524808 148.000000
2041.981053 -3449.842274 148.000000
2040.006410 -3450.159741 148.000000
2038.031767 -3450.477208 148.000000
2036.057124 -3450.794675 148.000000
2034.082481 -3451.112141 148.000000
2032.107838 -3451.429608 148.000000
2030.133195 -3451.747075 148.000000
2028.158552 -3452.064541 148.000000
2026.183909 -3452.382008 148.000000
2024.209266 -3452.699475 148.000000
2022.234623 -3453.016942 148.000000
2020.259980 -3453.334408 148.000000
2018.285337 -3453.651875 148.000000
2016.310694 -3453.969342 148.000000
2014.336051 -3454.286809 148.000000
2012.361408 -3454.604275 148.000000
2010.386765 -3454.921742 148.000000
2008.412122 -3455.239209 148.000000
2006.437479 -3455.556675 148.000000
2004.462836 -3455.874142 148.000000
2002.488193 -3456.191609 148.000000
2000.513550 -3456.509076 148.000000
1998.538907 -3456.826542 148.000000
1996.564264 -3457.144009 148.000000
1994.589621 -3457.461476 148.000000
1992.614978 -3457.778942 148.000000
1990.640335 -3458.096409 148.000000
1988.665692 -3458.413876 148.000000
1986.691049 -3458.731343 148.000000
1984.716406 -3459.048809 148.000000
1982.741763 -3459.366276 148.000000
1980.767120 -3459.683743 148.000000
1978.792477 -3460.001209 148.000000
1976.817834 -3460.318676 148.000000
1974.843192 -3460.636143 148.000000
1972.868549 -3460.953610 148.000000
1970.893906 -3461.271076 148.000000
1968.919263 -3461.588543 148.000000
1966.944620 -3461.906010 148.000000
1964.969977 -3462.223476 148.000000
1962.995334 -3462.540943 148.000000
1961.020691 -3462.858410 148.000000
1959.046048 -3463.175877 148.000000
1957.071405 -3463.493343 148.000000
1955.096762 -3463.810810 148.000000
1953.122119 -3464.128277 148.000000
1951.147476 -3464.445743 148.000000
1949.172833 -3464.763210 148.000000
1947.198190 -3465.080677 148.000000
1945.223547 -3465.398144 148.000000
1943.248904 -3465.715610 148.000000
1941.274261 -3466.033077 148.000000
1939.299618 -3466.350544 148.000000
1937.324975 -3466.668010 148.000000
1935.350332 -3466.985477 148.000000
1933.375689 -3467.302944 148.000000
1931.401046 -3467.620411 148.000000
1929.426403 -3467.937877 148.000000
1927.451760 -3468.255344 148.000000
1925.477117 -3468.572811 148.000000
1923.502474 -3468.890277 148.000000
1921.527831 -3469.207744 148.000000
1919.553188 -3469.525211 148.000000
1917.578545 -3469.842678 148.000000
1915.603902 -3470.160144 148.000000
1913.629259 -3470.477611 148.000000
1911.654616 -3470.795078 148.000000
1909.679973 -3471.112544 148.000000
1907.705330 -3471.430011 148.000000
1905.730687 -3471.747478 148.000000
1903.756044 -3472.064945 148.000000
1901.781401 -3472.382411 148.000000
1899.806758 -3472.699878 148.000000
1897.832115 -3473.017345 148.000000
1895.857472 -3473.334812 148.000000
1893.882829 -3473.652278 148.000000
1891.908187 -3473.969745 148.000000
1889.933544 -3474.287212 148.000000
1887.958901 -3474.604678 148.000000
1885.984258 -3474.922145 148.000000
1884.009615 -3475.239612 148.000000
1882.034972 -3475.557079 148.000000
1880.060329 -3475.874545 148.000000
1878.085686 -3476.192012 148.000000
1876.111043 -3476.509479 148.000000
1874.136400 -3476.826945 148.000000
1872.161757 -3477.144412 148.000000
1870.187114 -3477.461879 148.000000
1868.212471 -3477.779346 148.000000
1866.237828 -3478.096812 148.000000
1864.263185 -3478.414279 148.000000
1862.288542 -3478.731746 148.000000
1860.313899 -3479.049212 148.000000
1858.339256 -3479.366679 148.000000
1856.364613 -3479.684146 148.000000
1854.389970 -3480.001613 148.000000
1852.415327 -3480.319079 148.000000
1850.440684 -3480.636546 148.000000
1848.466041 -3480.954013 148.000000
1846.491398 -3481.271479 148.000000
1844.516755 -3481.588946 148.000000
1842.542112 -3481.906413 148.000000
1840.567469 -3482.223880 148.000000
1838.592826 -3482.541346 148.000000
1836.618183 -3482.858813 148.000000
1834.643540 -3483.176280 148.000000
1832.668897 -3483.493746 148.000000
1830.694254 -3483.811213 148.000000
1828.719611 -3484.128680 148.000000
1826.744968 -3484.446147 148.000000
1824.770325 -3484.763613 148.000000
1822.795682 -3485.081080 148.000000
1820.821039 -3485.398547 148.000000
1818.846396 -3485.716013 148.000000
1816.871753 -3486.033480 148.000000
1814.897110 -3486.350947 148.000000
1812.922467 -3486.668414 148.000000
1810.947824 -3486.985880 148.000000
1808.973182 -3487.303347 148.000000
1806.998539 -3487.620814 148.000000
1805.023896 -3487.938280 148.000000
1803.049253 -3488.255747 148.000000
1801.074610 -3488.573214 148.000000
1799.099967 -3488.890681 148.000000
1797.125324 -3489.208147 148.000000
1795.150681 -3489.525614 148.000000
1793.176038 -3489.843081 148.000000
1791.201395 -3490.160547 148.000000
1789.226752 -3490.478014 148.000000
1787.252109 -3490.795481 148.000000
1785.277466 -3491.112948 148.000000
1783.302823 -3491.430414 148.000000
1781.328180 -3491.747881 148.000000
1779.353537 -3492.065348 148.000000
1777.378894 -3492.382814 148.000000
1775.404251 -3492.700281 148.000000
1773.429608 -3493.017748 148.000000
1771.454965 -3493.335215 148.000000
1769.480322 -3493.652681 148.000000
1767.505679 -3493.970148 148.000000
1765.531036 -3494.287615 148.000000
1763.556393 -3494.605082 148.000000
1761.581750 -3494.922548 148.000000
1759.607107 -3495.240015 148.000000
1757.632464 -3495.557482 148.000000
1755.657821 -3495.874948 148.000000
1753.683178 -3496.192415 148.000000
1751.708535 -3496.509882 148.000000
1749.733892 -3496.827349 148.000000
1747.759249 -3497.144815 148.000000
1745.784606 -3497.462282 148.000000
1743.809963 -3497.779749 148.000000
1741.835320 -3498.097215 148.000000
1739.860677 -3498.414682 148.000000
1737.886034 -3498.732149 148.000000
1735.911391 -3499.049616 148.000000
1733.936748 -3499.367082 148.000000
1731.962105 -3499.684549 148.000000
1729.987462 -3500.002016 148.000000
1728.012819 -3500.319482 148.000000
1726.038177 -3500.636949 148.000000
1724.063534 -3500.954416 148.000000
1722.088891 -3501.271883 148.000000
1720.114248 -3501.589349 148.000000
1718.139605 -3501.906816 148.000000
1716.164962 -3502.224283 148.000000
1714.190319 -3502.541749 148.000000
1712.215676 -3502.859216 148.000000
1710.241033 -3503.176683 148.000000
1708.266390 -3503.494150 148.000000
1706.291747 -3503.811616 148.000000
1704.317104 -3504.129083 148.000000
1702.342461 -3504.446550 148.000000
1700.367818 -3504.764016 148.000000
1698.393175 -3505.081483 148.000000
1696.418532 -3505.398950 148.000000
1694.443889 -3505.716417 148.000000
1692.469246 -3506.033883 148.000000
1690.494603 -3506.351350 148.000000
1688.519960 -3506.668817 148.000000
1686.545317 -3506.986283 148.000000
1684.570674 -3507.303750 148.000000
1682.596031 -3507.621217 148.000000
1680.621388 -3507.938684 148.000000
1678.646745 -3508.256150 148.000000
1676.672102 -3508.573617 148.000000
1674.697459 -3508.891084 148.000000
1672.722816 -3509.208550 148.000000
1670.748173 -3509.526017 148.000000
1668.773530 -3509.843484 148.000000
1666.798887 -3510.160951 148.000000
1664.824244 -3510.478417 148.000000
1662.849601 -3510.795884 148.000000
1660.874958 -3511.113351 148.000000
1658.900315 -3511.430817 148.000000
1656.925672 -3511.748284 148.000000
1654.951029 -3512.065751 148.000000
1652.976386 -3512.383218 148.000000
1651.001743 -3512.700684 148.000000
1649.027100 -3513.018151 148.000000
1647.052457 -3513.335618 148.000000
1645.077814 -3513.653084 148.000000
1643.103171 -3513.970551 148.000000
1641.128529 -3514.288018 148.000000
1639.153886 -3514.605485 148.000000
1637.179243 -3514.922951 148.000000
1635.204600 -3515.240418 148.000000
1633.229957 -3515.557885 148.000000
1631.255314 -3515.875352 148.000000
1629.280671 -3516.192818 148.000000
1627.306028 -3516.510285 148.000000
1625.331385 -3516.827752 148.000000
1623.356742 -3517.145218 148.000000
1621.382099 -3517.462685 148.000000
1619.407456 -3517.780152 148.000000
1617.432813 -3518.097619 148.000000
1615.458170 -3518.415085 148.000000
1613.483527 -3518.732552 148.000000
1611.508884 -3519.050019 148.000000
1609.534241 -3519.367485 148.000000
1607.559598 -3519.684952 148.000000
1605.584955 -3520.002419 148.000000
1603.610312 -3520.319886 148.000000
1601.635669 -3520.637352 148.000000
1599.661026 -3520.954819 148.000000
1597.686383 -3521.272286 148.000000
1595.711740 -3521.589752 148.000000
1593.737097 -3521.907219 148.000000
1591.762454 -3522.224686 148.000000
1589.787811 -3522.542153 148.000000
1587.813168 -3522.859619 148.000000
1585.838525 -3523.177086 148.000000
1583.863882 -3523.494553 148.000000
1581.889239 -3523.812019 148.000000
1579.914596 -3524.129486 148.000000
1577.939953 -3524.446953 148.000000
1575.965310 -3524.764420 148.000000
1573.990667 -3525.081886 148.000000
1572.016024 -3525.399353 148.000000
1570.041381 -3525.716820 148.000000
1568.066738 -3526.034286 148.000000
1566.092095 -3526.351753 148.000000
1564.117452 -3526.669220 148.000000
1562.142809 -3526.986687 148.000000
1560.168166 -3527.304153 148.000000
1558.193524 -3527.621620 148.000000
1556.218881 -3527.939087 148.000000
1554.244238 -3528.256553 148.000000
1552.269595 -3528.574020 148.000000
1550.294952 -3528.891487 148.000000
1548.320309 -3529.208954 148.000000
1546.345666 -3529.526420 148.000000
1544.371023 -3529.843887 148.000000
1542.396380 -3530.161354 148.000000
1540.421737 -3530.478820 148.000000
1538.447094 -3530.796287 148.000000
1536.472451 -3531.113754 148.000000
1534.497808 -3531.431221 148.000000
1532.523165 -3531.748687 148.000000
1530.548522 -3532.066154 148.000000
1528.573879 -3532.383621 148.000000
1526.599236 -3532.701087 148.000000
1524.624593 -3533.018554 148.000000
1522.649950 -3533.336021 148.000000
1520.675307 -3533.653488 148.000000
1518.700664 -3533.970954 148.000000
1516.726021 -3534.288421 148.000000
1514.751378 -3534.605888 148.000000
1512.776735 -3534.923354 148.000000
1510.802092 -3535.240821 148.000000
1508.827449 -3535.558288 148.000000
1506.852806 -3535.875755 148.000000
1504.878163 -3536.193221 148.000000
1502.903520 -3536.510688 148.000000
1500.928877 -3536.828155 148.000000
1498.954234 -3537.145622 148.000000
1496.979591 -3537.463088 148.000000
1495.004948 -3537.780555 148.000000
1493.030305 -3538.098022 148.000000
1491.055662 -3538.415488 148.000000
1489.081019 -3538.732955 148.000000
1487.106376 -3539.050422 148.000000
1485.131733 -3539.367889 148.000000
1483.157090 -3539.685355 148.000000
1481.182447 -3540.002822 148.000000
1479.207804 -3540.320289 148.000000
1477.233161 -3540.637755 148.000000
1475.258519 -3540.955222 148.000000
1473.283876 -3541.272689 148.000000
1471.309233 -3541.590156 148.000000
1469.334590 -3541.907622 148.000000
1467.359947 -3542.225089 148.000000
1465.385304 -3542.542556 148.000000
1463.410661 -3542.860022 148.000000
1461.436018 -3543.177489 148.000000
1459.461375 -3543.494956 148.000000
1457.486732 -3543.812423 148.000000
1455.512089 -3544.129889 148.000000
1453.537446 -3544.447356 148.000000
1451.562803 -3544.764823 148.000000
1449.588160 -3545.082289 148.000000
1447.613517 -3545.399756 148.000000
1445.638874 -3545.717223 148.000000
1443.664231 -3546.034690 148.000000
1441.689588 -3546.352156 148.000000
1439.714945 -3546.669623 148.000000
1437.740302 -3546.987090 148.000000
1435.765659 -3547.304556 148.000000
1433.791016 -3547.622023 148.000000
1431.816373 -3547.939490 148.000000
1429.841730 -3548.256957 148.000000
1427.867087 -3548.574423 148.000000
1425.892444 -3548.891890 148.000000
1423.917801 -3549.209357 148.000000
1421.943158 -3549.526823 148.000000
1419.968515 -3549.844290 148.000000
1417.993872 -3550.161757 148.000000
1416.019229 -3550.479224 148.000000
1414.044586 -3550.796690 148.000000
1412.069943 -3551.114157 148.000000
1410.095300 -3551.431624 148.000000
1408.120657 -3551.749090 148.000000
1406.146014 -3552.066557 148.000000
1404.171371 -3552.384024 148.000000
1402.196728 -3552.701491 148.000000
1400.222085 -3553.018957 148.000000
1398.247442 -3553.336424 148.000000
1396.272799 -3553.653891 148.000000
1394.298156 -3553.971357 148.000000
1392.323514 -3554.288824 148.000000
1390.348871 -3554.606291 148.000000
1388.374228 -3554.923758 148.000000
1386.399585 -3555.241224 148.000000
1384.424942 -3555.558691 148.000000
1382.450299 -3555.876158 148.000000
1380.475656 -3556.193624 148.000000
1378.501013 -3556.511091 148.000000
1376.526370 -3556.828558 148.000000
1374.551727 -3557.146025 148.000000
1372.577084 -3557.463491 148.000000
1370.602441 -3557.780958 148.000000
1368.627798 -3558.098425 148.000000
1366.653155 -3558.415892 148.000000
1364.678512 -3558.733358 148.000000
1362.703869 -3559.050825 148.000000
1360.729226 -3559.368292 148.000000
1358.754583 -3559.685758 148.000000
1356.779940 -3560.003225 148.000000
1354.805297 -3560.320692 148.000000
1352.830654 -3560.638159 148.000000
1350.856011 -3560.955625 148.000000
1348.881368 -3561.273092 148.000000
1346.906725 -3561.590559 148.000000
1344.932082 -3561.908025 148.000000
1342.957439 -3562.225492 148.000000
1340.982796 -3562.542959 148.000000
1339.008153 -3562.860426 148.000000
1337.033510 -3563.177892 148.000000
1335.058867 -3563.495359 148.000000
1333.084224 -3563.812826 148.000000
1331.109581 -3564.130292 148.000000
1329.134938 -3564.447759 148.000000
1327.160295 -3564.765226 148.000000
1325.185652 -3565.082693 148.000000
1323.211009 -3565.400159 148.000000
1321.236366 -3565.717626 148.000000
1319.261723 -3566.035093 148.000000
1317.287080 -3566.352559 148.000000
1315.312437 -3566.670026 148.000000
1313.337794 -3566.987493 148.000000
1311.363151 -3567.304960 148.000000
1309.388509 -3567.622426 148.000000
1307.413866 -3567.939893 148.000000
1305.439223 -3568.257360 148.000000
1303.464580 -3568.574826 148.000000
1301.489937 -3568.892293 148.000000
1299.515294 -3569.209760 148.000000
1297.540651 -3569.527227 148.000000
1295.566008 -3569.844693 148.000000
1293.591365 -3570.162160 148.000000
1291.616722 -3570.479627 148.000000
1289.642079 -3570.797093 148.000000
1287.667436 -3571.114560 148.000000
1285.692793 -3571.432027 148.000000
1283.718150 -3571.749494 148.000000
1281.743507 -3572.066960 148.000000
1279.768864 -3572.384427 148.000000
1277.794221 -3572.701894 148.000000
1275.819578 -3573.019360 148.000000
1273.844935 -3573.336827 148.000000
1271.870292 -3573.654294 148.000000
1269.895649 -3573.971761 148.000000
1267.921006 -3574.289227 148.000000
1265.946363 -3574.606694 148.000000
1263.971720 -3574.924161 148.000000
1261.997077 -3575.241627 148.000000
1260.022434 -3575.559094 148.000000
1258.047791 -3575.876561 148.000000
1256.073148 -3576.194028 148.000000
1254.098505 -3576.511494 148.000000
1252.123862 -3576.828961 148.000000
1250.149219 -3577.146428 148.000000
1248.174576 -3577.463894 148.000000
1246.199933 -3577.781361 148.000000
1244.225290 -3578.098828 148.000000
1242.250647 -3578.416295 148.000000
1240.276004 -3578.733761 148.000000
1238.301361 -3579.051228 148.000000
1236.326718 -3579.368695 148.000000
1234.352075 -3579.686162 148.000000
1232.377432 -3580.003628 148.000000
1230.402789 -3580.321095 148.000000
1228.428146 -3580.638562 148.000000
1226.453503 -3580.956028 148.000000
1224.478861 -3581.273495 148.000000
1222.504218 -3581.590962 148.000000
1220.529575 -3581.908429 148.000000
1218.554932 -3582.225895 148.000000
1216.580289 -3582.543362 148.000000
1214.605646 -3582.860829 148.000000
1212.631003 -3583.178295 148.000000
1210.656360 -3583.495762 148.000000
1208.681717 -3583.813229 148.000000
1206.707074 -3584.130696 148.000000
1204.732431 -3584.448162 148.000000
1202.757788 -3584.765629 148.000000
1200.783145 -3585.083096 148.000000
1198.808502 -3585.400562 148.000000
1196.833859 -3585.718029 148.000000
1194.859216 -3586.035496 148.000000
1192.884573 -3586.352963 148.000000
1190.909930 -3586.670429 148.000000
1188.935287 -3586.987896 148.000000
1186.960644 -3587.305363 148.000000
1184.986001 -3587.622829 148.000000
1183.011358 -3587.940296 148.000000
1181.036715 -3588.257763 148.000000
1179.062072 -3588.575230 148.000000
1177.087429 -3588.892696 148.000000
1175.112786 -3589.210163 148.000000
1173.138143 -3589.527630 148.000000
1171.163500 -3589.845096 148.000000
1169.188857 -3590.162563 148.000000
1167.214214 -3590.480030 148.000000
1165.239571 -3590.797497 148.000000
1163.264928 -3591.114963 148.000000
1161.290285 -3591.432430 148.000000
1159.315642 -3591.749897 148.000000
1157.340999 -3592.067363 148.000000
1155.366356 -3592.384830 148.000000
1153.391713 -3592.702297 148.000000
1151.417070 -3593.019764 148.000000
1149.442427 -3593.337230 148.000000
1147.467784 -3593.654697 148.000000
1145.493141 -3593.972164 148.000000
1143.518498 -3594.289630 148.000000
1141.543856 -3594.607097 148.000000
1139.569213 -3594.924564 148.000000
1137.594570 -3595.242031 148.000000
1135.619927 -3595.559497 148.000000
1133.645284 -3595.876964 148.000000
1131.670641 -3596.194431 148.000000
1129.695998 -3596.511897 148.000000
1127.721355 -3596.829364 148.000000
1125.746712 -3597.146831 148.000000
1123.772069 -3597.464298 148.000000
1121.797426 -3597.781764 148.000000
1119.822783 -3598.099231 148.000000
1117.848140 -3598.416698 148.000000
1115.873497 -3598.734164 148.000000
1113.898854 -3599.051631 148.000000
1111.924211 -3599.369098 148.000000
1108.000000 -3600.000000 148.000000
1107.907476 -3600.185048 146.010730
1107.814952 -3600.370097 144.021459
1107.722427 -3600.555145 142.032189
1107.629903 -3600.740194 140.042919
1107.537379 -3600.925242 138.053648
1107.444855 -3601.110290 136.064378
1107.352331 -3601.295339 134.075108
1107.259806 -3601.480387 132.085838
1107.167282 -3601.665436 130.096567
1107.074758 -3601.850484 128.107297
1106.982234 -3602.035532 126.118027
1106.889710 -3602.220581 124.128756
1106.797185 -3602.405629 122.139486
1106.704661 -3602.590678 120.150216
1106.612137 -3602.775726 118.160945
1106.519613 -3602.960774 116.171675
1106.427089 -3603.145823 114.182405
1106.334564 -3603.330871 112.193134
1106.242040 -3603.515920 110.203864
1106.149516 -3603.700968 108.214594
1106.056992 -3603.886016 106.225324
1105.964468 -3604.071065 104.236053
1105.871943 -3604.256113 102.246783
1105.779419 -3604.441162 100.257513
1105.686895 -3604.626210 98.268242
1105.594371 -3604.811258 96.278972
1105.501847 -3604.996307 94.289702
1105.409322 -3605.181355 92.300431
1105.316798 -3605.366404 90.311161
1105.224274 -3605.551452 88.321891
1105.131750 -3605.736500 86.332620
1105.039226 -3605.921549 84.343350
1104.946701 -3606.106597 82.354080
1104.854177 -3606.291646 80.364809
1104.761653 -3606.476694 78.375539
1104.669129 -3606.661742 76.386269
1104.576605 -3606.846791 74.396999
1104.484080 -3607.031839 72.407728
1104.391556 -3607.216888 70.418458
1104.299032 -3607.401936 68.429188
1104.206508 -3607.586984 66.439917
1104.113984 -3607.772033 64.450647
1104.021459 -3607.957081 62.461377
1103.928935 -3608.142130 60.472106
1103.836411 -3608.327178 58.482836
1103.743887 -3608.512226 56.493566
1103.651363 -3608.697275 54.504295
1103.558838 -3608.882323 52.515025
1103.466314 -3609.067372 50.525755
1103.373790 -3609.252420 48.536485
1103.281266 -3609.437468 46.547214
1103.188742 -3609.622517 44.557944
1103.096217 -3609.807565 42.568674
1103.003693 -3609.992614 40.579403
1102.911169 -3610.177662 38.590133
1102.818645 -3610.362710 36.600863
1102.726121 -3610.547759 34.611592
1102.633596 -3610.732807 32.622322
1102.541072 -3610.917856 30.633052
1102.448548 -3611.102904 28.643781
1102.356024 -3611.287952 26.654511
1102.263500 -3611.473001 24.665241
1102.170975 -3611.658049 22.675971
1102.078451 -3611.843098 20.686700
1101.985927 -3612.028146 18.697430
1101.893403 -3612.213194 16.708160
1101.800879 -3612.398243 14.718889
1101.708354 -3612.583291 12.729619
1101.615830 -3612.768340 10.740349
1101.523306 -3612.953388 8.751078
1101.430782 -3613.138436 6.761808
1101.338258 -3613.323485 4.772538
1101.245733 -3613.508533 2.783267
1101.153209 -3613.693582 0.793997
1101.060685 -3613.878630 -1.195273
1100.968161 -3614.063678 -3.184543
1100.875637 -3614.248727 -5.173814
1100.783112 -3614.433775 -7.163084
1100.690588 -3614.618824 -9.152354
1100.598064 -3614.803872 -11.141625
1100.505540 -3614.988920 -13.130895
1100.413016 -3615.173969 -15.120165
1100.320491 -3615.359017 -17.109436
1100.227967 -3615.544066 -19.098706
1100.135443 -3615.729114 -21.087976
1100.000000 -3616.000000 -24.000000
1100.000000 -3618.000000 -24.000000
1100.000000 -3620.000000 -24.000000
1100.000000 -3622.000000 -24.000000
1100.000000 -3624.000000 -24.000000
1100.000000 -3626.000000 -24.000000
1100.000000 -3628.000000 -24.000000
1100.000000 -3630.000000 -24.000000
1100.000000 -3632.000000 -24.000000
1100.000000 -3634.000000 -24.000000
1100.000000 -3636.000000 -24.000000
1100.000000 -3638.000000 -24.000000
1100.000000 -3640.000000 -24.000000
1100.000000 -3642.000000 -24.000000
1100.000000 -3644.000000 -24.000000
1100.000000 -3648.000000 -24.000000
1100.000000 -3649.064343 -25.693273
1100.000000 -3650.128686 -27.386546
1100.000000 -3651.193029 -29.079819
1100.000000 -3652.257372 -30.773092
1100.000000 -3653.321715 -32.466365
1100.000000 -3654.386059 -34.159639
1100.000000 -3655.450402 -35.852912
1100.000000 -3656.514745 -37.546185
1100.000000 -3657.579088 -39.239458
1100.000000 -3658.643431 -40.932731
1100.000000 -3659.707774 -42.626004
1100.000000 -3660.772117 -44.319277
1100.000000 -3661.836460 -46.012550
1100.000000 -3662.900803 -47.705823
1100.000000 -3663.965146 -49.399096
1100.000000 -3665.029489 -51.092370
1100.000000 -3666.093833 -52.785643
1100.000000 -3667.158176 -54.478916
1100.000000 -3668.222519 -56.172189
1100.000000 -3669.286862 -57.865462
1100.000000 -3670.351205 -59.558735
1100.000000 -3671.415548 -61.252008
1100.000000 -3672.479891 -62.945281
1100.000000 -3673.544234 -64.638554
1100.000000 -3674.608577 -66.331827
1100.000000 -3675.672920 -68.025101
1100.000000 -3676.737263 -69.718374
1100.000000 -3677.801607 -71.411647
1100.000000 -3678.865950 -73.104920
1100.000000 -3679.930293 -74.798193
1100.000000 -3680.994636 -76.491466
1100.000000 -3682.058979 -78.184739
1100.000000 -3683.123322 -79.878012
1100.000000 -3684.187665 -81.571285
1100.000000 -3685.252008 -83.264558
1100.000000 -3686.316351 -84.957832
1100.000000 -3687.380694 -86.651105
1100.000000 -3688.445037 -88.344378
1100.000000 -3689.509381 -90.037651
1100.000000 -3690.573724 -91.730924
1100.000000 -3691.638067 -93.424197
1100.000000 -3692.702410 -95.117470
1100.000000 -3693.766753 -96.810743
1100.000000 -3694.831096 -98.504016
1100.000000 -3695.895439 -100.197289
1100.000000 -3696.959782 -101.890563
1100.000000 -3698.024125 -103.583836
1100.000000 -3699.088468 -105.277109
1100.000000 -3700.152811 -106.970382
1100.000000 -3701.217155 -108.663655
1100.000000 -3702.281498 -110.356928
1100.000000 -3703.345841 -112.050201
1100.000000 -3704.410184 -113.743474
1100.000000 -3705.474527 -115.436747
1100.000000 -3706.538870 -117.130020
1100.000000 -3707.603213 -118.823294
1100.000000 -3708.667556 -120.516567
1100.000000 -3709.731899 -122.209840
1100.000000 -3710.796242 -123.903113
1100.000000 -3711.860585 -125.596386
1100.000000 -3712.924929 -127.289659
1100.000000 -3713.989272 -128.982932
1100.000000 -3715.053615 -130.676205
1100.000000 -3716.117958 -132.369478
1100.000000 -3717.182301 -134.062751
1100.000000 -3718.246644 -135.756024
1100.000000 -3719.310987 -137.449298
1100.000000 -3720.375330 -139.142571
1100.000000 -3721.439673 -140.835844
1100.000000 -3722.504016 -142.529117
1100.000000 -3723.568359 -144.222390
1100.000000 -3724.632703 -145.915663
1100.000000 -3725.697046 -147.608936
1100.000000 -3726.761389 -149.302209
1100.000000 -3727.825732 -150.995482
1100.000000 -3728.890075 -152.688755
1100.000000 -3729.954418 -154.382029
1100.000000 -3731.018761 -156.075302
1100.000000 -3732.083104 -157.768575
1100.000000 -3733.147447 -159.461848
1100.000000 -3734.211790 -161.155121
1100.000000 -3735.276133 -162.848394
1100.000000 -3736.340477 -164.541667
1100.000000 -3737.404820 -166.234940
1100.000000 -3738.469163 -167.928213
1100.000000 -3739.533506 -169.621486
1100.000000 -3740.597849 -171.314760
1100.000000 -3741.662192 -173.008033
1100.000000 -3742.726535 -174.701306
1100.000000 -3743.790878 -176.394579
1100.000000 -3744.855221 -178.087852
1100.000000 -3745.919564 -179.781125
1100.000000 -3746.983907 -181.474398
1100.000000 -3748.048251 -183.167671
1100.000000 -3749.112594 -184.860944
1100.000000 -3750.176937 -186.554217
1100.000000 -3751.241280 -188.247491
1100.000000 -3752.305623 -189.940764
1100.000000 -3753.369966 -191.634037
1100.000000 -3754.434309 -193.327310
1100.000000 -3755.498652 -195.020583
1100.000000 -3756.562995 -196.713856
1100.000000 -3757.627338 -198.407129
1100.000000 -3758.691681 -200.100402
1100.000000 -3759.756024 -201.793675
1100.000000 -3760.820368 -203.486948
1100.000000 -3761.884711 -205.180222
1100.000000 -3762.949054 -206.873495
1100.000000 -3764.013397 -208.566768
1100.000000 -3765.077740 -210.260041
1100.000000 -3766.142083 -211.953314
1100.000000 -3767.206426 -213.646587
1100.000000 -3768.270769 -215.339860
1100.000000 -3769.335112 -217.033133
1100.000000 -3770.399455 -218.726406
1100.000000 -3771.463798 -220.419679
1100.000000 -3772.528142 -222.112953
1100.000000 -3773.592485 -223.806226
1100.000000 -3774.656828 -225.499499
1100.000000 -3775.721171 -227.192772
1100.000000 -3776.785514 -228.886045
1100.000000 -3777.849857 -230.579318
1100.000000 -3778.914200 -232.272591
1100.000000 -3779.978543 -233.965864
1100.000000 -3781.042886 -235.659137
1100.000000 -3782.107229 -237.352410
1100.000000 -3783.171572 -239.045683
1100.000000 -3784.235916 -240.738957
1100.000000 -3785.300259 -242.432230
1100.000000 -3786.364602 -244.125503
1100.000000 -3787.428945 -245.818776
1100.000000 -3788.493288 -247.512049
1100.000000 -3789.557631 -249.205322
1100.000000 -3790.621974 -250.898595
1100.000000 -3791.686317 -252.591868
1100.000000 -3792.750660 -254.285141
1100.000000 -3793.815003 -255.978414
1100.000000 -3794.879346 -257.671688
1100.000000 -3795.943690 -259.364961
1100.000000 -3797.008033 -261.058234
1100.000000 -3798.072376 -262.751507
1100.000000 -3799.136719 -264.444780
1100.000000 -3800.201062 -266.138053
1100.000000 -3801.265405 -267.831326
1100.000000 -3802.329748 -269.524599
1100.000000 -3803.394091 -271.217872
1100.000000 -3804.458434 -272.911145
1100.000000 -3805.522777 -274.604419
1100.000000 -3806.587120 -276.297692
1100.000000 -3807.651464 -277.990965
1100.000000 -3808.715807 -279.684238
1100.000000 -3809.780150 -281.377511
1100.000000 -3810.844493 -283.070784
1100.000000 -3811.908836 -284.764057
1100.000000 -3812.973179 -286.457330
1100.000000 -3814.037522 -288.150603
1100.000000 -3815.101865 -289.843876
1100.000000 -3816.166208 -291.537150
1100.000000 -3817.230551 -293.230423
1100.000000 -3818.294894 -294.923696
1100.000000 -3819.359238 -296.616969
1100.000000 -3820.423581 -298.310242
1100.000000 -3821.487924 -300.003515
1100.000000 -3822.552267 -301.696788
1100.000000 -3824.000000 -304.000000
1101.984661 -3824.000000 -304.247224
1103.969322 -3824.000000 -304.494448
1105.953984 -3824.000000 -304.741673
1107.938645 -3824.000000 -304.988897
1109.923306 -3824.000000 -305.236121
1111.907967 -3824.000000 -305.483345
1113.892629 -3824.000000 -305.730570
1115.877290 -3824.000000 -305.977794
1117.861951 -3824.000000 -306.225018
1119.846612 -3824.000000 -306.472242
1121.831273 -3824.000000 -306.719467
1123.815935 -3824.000000 -306.966691
1125.800596 -3824.000000 -307.213915
1127.785257 -3824.000000 -307.461139
1129.769918 -3824.000000 -307.708364
1131.754580 -3824.000000 -307.955588
1133.739241 -3824.000000 -308.202812
1135.723902 -3824.000000 -308.450036
1137.708563 -3824.000000 -308.697260
1139.693224 -3824.000000 -308.944485
1141.677886 -3824.000000 -309.191709
1143.662547 -3824.000000 -309.438933
1145.647208 -3824.000000 -309.686157
1147.631869 -3824.000000 -309.933382
1149.616531 -3824.000000 -310.180606
1151.601192 -3824.000000 -310.427830
1153.585853 -3824.000000 -310.675054
1155.570514 -3824.000000 -310.922279
1157.555176 -3824.000000 -311.169503
1159.539837 -3824.000000 -311.416727
1161.524498 -3824.000000 -311.663951
1163.509159 -3824.000000 -311.911176
1165.493820 -3824.000000 -312.158400
1167.478482 -3824.000000 -312.405624
1169.463143 -3824.000000 -312.652848
1171.447804 -3824.000000 -312.900072
1173.432465 -3824.000000 -313.147297
1175.417127 -3824.000000 -313.394521
1177.401788 -3824.000000 -313.641745
1179.386449 -3824.000000 -313.888969
1181.371110 -3824.000000 -314.136194
1183.355771 -3824.000000 -314.383418
1185.340433 -3824.000000 -314.630642
1187.325094 -3824.000000 -314.877866
1189.309755 -3824.000000 -315.125091
1191.294416 -3824.000000 -315.372315
1193.279078 -3824.000000 -315.619539
1195.263739 -3824.000000 -315.866763
1197.248400 -3824.000000 -316.113988
1199.233061 -3824.000000 -316.361212
1201.217722 -3824.000000 -316.608436
1203.202384 -3824.000000 -316.855660
1205.187045 -3824.000000 -317.102884
1207.171706 -3824.000000 -317.350109
1209.156367 -3824.000000 -317.597333
1211.141029 -3824.000000 -317.844557
1213.125690 -3824.000000 -318.091781
1215.110351 -3824.000000 -318.339006
1217.095012 -3824.000000 -318.586230
1219.079673 -3824.000000 -318.833454
1221.064335 -3824.000000 -319.080678
1223.048996 -3824.000000 -319.327903
1225.033657 -3824.000000 -319.575127
1227.018318 -3824.000000 -319.822351
1229.002980 -3824.000000 -320.069575
1230.987641 -3824.000000 -320.316800
1232.972302 -3824.000000 -320.564024
1234.956963 -3824.000000 -320.811248
1236.941625 -3824.000000 -321.058472
1238.926286 -3824.000000 -321.305696
1240.910947 -3824.000000 -321.552921
1242.895608 -3824.000000 -321.800145
1244.880269 -3824.000000 -322.047369
1246.864931 -3824.000000 -322.294593
1248.849592 -3824.000000 -322.541818
1250.834253 -3824.000000 -322.789042
1252.818914 -3824.000000 -323.036266
1254.803576 -3824.000000 -323.283490
1256.788237 -3824.000000 -323.530715
1258.772898 -3824.000000 -323.777939
1260.757559 -3824.000000 -324.025163
1262.742220 -3824.000000 -324.272387
1264.726882 -3824.000000 -324.519612
1266.711543 -3824.000000 -324.766836
1268.696204 -3824.000000 -325.014060
1270.680865 -3824.000000 -325.261284
1272.665527 -3824.000000 -325.508508
1274.650188 -3824.000000 -325.755733
1276.634849 -3824.000000 -326.002957
1278.619510 -3824.000000 -326.250181
1280.604171 -3824.000000 -326.497405
1282.588833 -3824.000000 -326.744630
1284.573494 -3824.000000 -326.991854
1286.558155 -3824.000000 -327.239078
1288.542816 -3824.000000 -327.486302
1290.527478 -3824.000000 -327.733527
1292.512139 -3824.000000 -327.980751
1294.496800 -3824.000000 -328.227975
1296.481461 -3824.000000 -328.475199
1298.466122 -3824.000000 -328.722424
1300.450784 -3824.000000 -328.969648
1302.435445 -3824.000000 -329.216872
1304.420106 -3824.000000 -329.464096
1306.404767 -3824.000000 -329.711321
1308.389429 -3824.000000 -329.958545
1310.374090 -3824.000000 -330.205769
1312.358751 -3824.000000 -330.452993
1314.343412 -3824.000000 -330.700217
1316.328074 -3824.000000 -330.947442
1318.312735 -3824.000000 -331.194666
1320.297396 -3824.000000 -331.441890
1322.282057 -3824.000000 -331.689114
1324.266718 -3824.000000 -331.936339
1326.251380 -3824.000000 -332.183563
1328.236041 -3824.000000 -332.430787
1330.220702 -3824.000000 -332.678011
1332.205363 -3824.000000 -332.925236
1334.190025 -3824.000000 -333.172460
1336.174686 -3824.000000 -333.419684
1338.159347 -3824.000000 -333.666908
1340.144008 -3824.000000 -333.914133
1342.128669 -3824.000000 -334.161357
1344.113331 -3824.000000 -334.408581
1346.097992 -3824.000000 -334.655805
1348.082653 -3824.000000 -334.903029
1350.067314 -3824.000000 -335.150254
1352.051976 -3824.000000 -335.397478
1354.036637 -3824.000000 -335.644702
1356.021298 -3824.000000 -335.891926
1358.005959 -3824.000000 -336.139151
1359.990620 -3824.000000 -336.386375
1361.975282 -3824.000000 -336.633599
1363.959943 -3824.000000 -336.880823
1365.944604 -3824.000000 -337.128048
1367.929265 -3824.000000 -337.375272
1369.913927 -3824.000000 -337.622496
1371.898588 -3824.000000 -337.869720
1373.883249 -3824.000000 -338.116945
1375.867910 -3824.000000 -338.364169
1377.852571 -3824.000000 -338.611393
1379.837233 -3824.000000 -338.858617
1381.821894 -3824.000000 -339.105841
1383.806555 -3824.000000 -339.353066
1385.791216 -3824.000000 -339.600290
1387.775878 -3824.000000 -339.847514
1389.760539 -3824.000000 -340.094738
1391.745200 -3824.000000 -340.341963
1393.729861 -3824.000000 -340.589187
1395.714522 -3824.000000 -340.836411
1397.699184 -3824.000000 -341.083635
1399.683845 -3824.000000 -341.330860
1401.668506 -3824.000000 -341.578084
1403.653167 -3824.000000 -341.825308
1405.637829 -3824.000000 -342.072532
1407.622490 -3824.000000 -342.319757
1409.607151 -3824.000000 -342.566981
1411.591812 -3824.000000 -342.814205
1413.576474 -3824.000000 -343.061429
1415.561135 -3824.000000 -343.308653
1417.545796 -3824.000000 -343.555878
1419.530457 -3824.000000 -343.803102
1421.515118 -3824.000000 -344.050326
1423.499780 -3824.000000 -344.297550
1425.484441 -3824.000000 -344.544775
1427.469102 -3824.000000 -344.791999
1429.453763 -3824.000000 -345.039223
1431.438425 -3824.000000 -345.286447
1433.423086 -3824.000000 -345.533672
1435.407747 -3824.000000 -345.780896
1437.392408 -3824.000000 -346.028120
1439.377069 -3824.000000 -346.275344
1441.361731 -3824.000000 -346.522569
1443.346392 -3824.000000 -346.769793
1445.331053 -3824.000000 -347.017017
1447.315714 -3824.000000 -347.264241
1449.300376 -3824.000000 -347.511465
1451.285037 -3824.000000 -347.758690
1453.269698 -3824.000000 -348.005914
1455.254359 -3824.000000 -348.253138
1457.239020 -3824.000000 -348.500362
1459.223682 -3824.000000 -348.747587
1461.208343 -3824.000000 -348.994811
1463.193004 -3824.000000 -349.242035
1465.177665 -3824.000000 -349.489259
1467.162327 -3824.000000 -349.736484
1469.146988 -3824.000000 -349.983708
1471.131649 -3824.000000 -350.230932
1473.116310 -3824.000000 -350.478156
1475.100971 -3824.000000 -350.725381
1477.085633 -3824.000000 -350.972605
1479.070294 -3824.000000 -351.219829
1481.054955 -3824.000000 -351.467053
1483.039616 -3824.000000 -351.714277
1485.024278 -3824.000000 -351.961502
1487.008939 -3824.000000 -352.208726
1488.993600 -3824.000000 -352.455950
1490.978261 -3824.000000 -352.703174
1492.962923 -3824.000000 -352.950399
1494.947584 -3824.000000 -353.197623
1496.932245 -3824.000000 -353.444847
1498.916906 -3824.000000 -353.692071
1500.901567 -3824.000000 -353.939296
1502.886229 -3824.000000 -354.186520
1504.870890 -3824.000000 -354.433744
1506.855551 -3824.000000 -354.680968
1508.840212 -3824.000000 -354.928193
1510.824874 -3824.000000 -355.175417
1512.809535 -3824.000000 -355.422641
1514.794196 -3824.000000 -355.669865
1516.778857 -3824.000000 -355.917089
1518.763518 -3824.000000 -356.164314
1520.748180 -3824.000000 -356.411538
1522.732841 -3824.000000 -356.658762
1524.717502 -3824.000000 -356.905986
1526.702163 -3824.000000 -357.153211
1528.686825 -3824.000000 -357.400435
1530.671486 -3824.000000 -357.647659
1532.656147 -3824.000000 -357.894883
1534.640808 -3824.000000 -358.142108
1536.625469 -3824.000000 -358.389332
1538.610131 -3824.000000 -358.636556
1540.594792 -3824.000000 -358.883780
1542.579453 -3824.000000 -359.131005
1544.564114 -3824.000000 -359.378229
1546.548776 -3824.000000 -359.625453
1548.533437 -3824.000000 -359.872677
1550.518098 -3824.000000 -360.119901
1552.502759 -3824.000000 -360.367126
1554.487420 -3824.000000 -360.614350
1556.472082 -3824.000000 -360.861574
1558.456743 -3824.000000 -361.108798
1560.441404 -3824.000000 -361.356023
1562.426065 -3824.000000 -361.603247
1564.410727 -3824.000000 -361.850471
1566.395388 -3824.000000 -362.097695
1568.380049 -3824.000000 -362.344920
1570.364710 -3824.000000 -362.592144
1572.349372 -3824.000000 -362.839368
1574.334033 -3824.000000 -363.086592
1576.318694 -3824.000000 -363.333817
1578.303355 -3824.000000 -363.581041
1580.288016 -3824.000000 -363.828265
1582.272678 -3824.000000 -364.075489
1584.257339 -3824.000000 -364.322713
1586.242000 -3824.000000 -364.569938
1588.226661 -3824.000000 -364.817162
1590.211323 -3824.000000 -365.064386
1592.195984 -3824.000000 -365.311610
1594.180645 -3824.000000 -365.558835
1596.165306 -3824.000000 -365.806059
1598.149967 -3824.000000 -366.053283
1600.134629 -3824.000000 -366.300507
1602.119290 -3824.000000 -366.547732
1604.103951 -3824.000000 -366.794956
1606.088612 -3824.000000 -367.042180
1608.073274 -3824.000000 -367.289404
1610.057935 -3824.000000 -367.536629
1612.042596 -3824.000000 -367.783853
1614.027257 -3824.000000 -368.031077
1616.011918 -3824.000000 -368.278301
1617.996580 -3824.000000 -368.525525
1619.981241 -3824.000000 -368.772750
1621.965902 -3824.000000 -369.019974
1623.950563 -3824.000000 -369.267198
1625.935225 -3824.000000 -369.514422
1627.919886 -3824.000000 -369.761647
1629.904547 -3824.000000 -370.008871
1631.889208 -3824.000000 -370.256095
1633.873869 -3824.000000 -370.503319
1635.858531 -3824.000000 -370.750544
1637.843192 -3824.000000 -370.997768
1639.827853 -3824.000000 -371.244992
1641.812514 -3824.000000 -371.492216
1643.797176 -3824.000000 -371.739441
1645.781837 -3824.000000 -371.986665
1647.766498 -3824.000000 -372.233889
1649.751159 -3824.000000 -372.481113
1651.735821 -3824.000000 -372.728338
1653.720482 -3824.000000 -372.975562
1655.705143 -3824.000000 -373.222786
1657.689804 -3824.000000 -373.470010
1659.674465 -3824.000000 -373.717234
1661.659127 -3824.000000 -373.964459
1663.643788 -3824.000000 -374.211683
1665.628449 -3824.000000 -374.458907
1667.613110 -3824.000000 -374.706131
1669.597772 -3824.000000 -374.953356
1671.582433 -3824.000000 -375.200580
1673.567094 -3824.000000 -375.447804
1675.551755 -3824.000000 -375.695028
1677.536416 -3824.000000 -375.942253
1679.521078 -3824.000000 -376.189477
1681.505739 -3824.000000 -376.436701
1683.490400 -3824.000000 -376.683925
1685.475061 -3824.000000 -376.931150
1687.459723 -3824.000000 -377.178374
1689.444384 -3824.000000 -377.425598
1691.429045 -3824.000000 -377.672822
1693.413706 -3824.000000 -377.920046
1695.398367 -3824.000000 -378.167271
1697.383029 -3824.000000 -378.414495
1699.367690 -3824.000000 -378.661719
1701.352351 -3824.000000 -378.908943
1703.337012 -3824.000000 -379.156168
1705.321674 -3824.000000 -379.403392
1707.306335 -3824.000000 -379.650616
1709.290996 -3824.000000 -379.897840
1711.275657 -3824.000000 -380.145065
1713.260318 -3824.000000 -380.392289
1715.244980 -3824.000000 -380.639513
1717.229641 -3824.000000 -380.886737
1719.214302 -3824.000000 -381.133962
1721.198963 -3824.000000 -381.381186
1723.183625 -3824.000000 -381.628410
1725.168286 -3824.000000 -381.875634
1727.152947 -3824.000000 -382.122858
1729.137608 -3824.000000 -382.370083
1731.122269 -3824.000000 -382.617307
1733.106931 -3824.000000 -382.864531
1735.091592 -3824.000000 -383.111755
1737.076253 -3824.000000 -383.358980
1739.060914 -3824.000000 -383.606204
1741.045576 -3824.000000 -383.853428
1743.030237 -3824.000000 -384.100652
1745.014898 -3824.000000 -384.347877
1746.999559 -3824.000000 -384.595101
1748.984221 -3824.000000 -384.842325
1750.968882 -3824.000000 -385.089549
1752.953543 -3824.000000 -385.336774
1754.938204 -3824.000000 -385.583998
1756.922865 -3824.000000 -385.831222
1758.907527 -3824.000000 -386.078446
1760.892188 -3824.000000 -386.325670
1762.876849 -3824.000000 -386.572895
1764.861510 -3824.000000 -386.820119
1766.846172 -3824.000000 -387.067343
1768.830833 -3824.000000 -387.314567
1770.815494 -3824.000000 -387.561792
1772.800155 -3824.000000 -387.809016
1774.784816 -3824.000000 -388.056240
1776.769478 -3824.000000 -388.303464
1778.754139 -3824.000000 -388.550689
1780.738800 -3824.000000 -388.797913
1782.723461 -3824.000000 -389.045137
1784.708123 -3824.000000 -389.292361
1786.692784 -3824.000000 -389.539586
1788.677445 -3824.000000 -389.786810
1790.662106 -3824.000000 -390.034034
1792.646767 -3824.000000 -390.281258
1794.631429 -3824.000000 -390.528482
1796.616090 -3824.000000 -390.775707
1798.600751 -3824.000000 -391.022931
1800.585412 -3824.000000 -391.270155
1802.570074 -3824.000000 -391.517379
1804.554735 -3824.000000 -391.764604
1806.539396 -3824.000000 -392.011828
1808.524057 -3824.000000 -392.259052
1810.508718 -3824.000000 -392.506276
1812.493380 -3824.000000 -392.753501
1814.478041 -3824.000000 -393.000725
1816.462702 -3824.000000 -393.247949
1818.447363 -3824.000000 -393.495173
1820.432025 -3824.000000 -393.742398
1822.416686 -3824.000000 -393.989622
1824.401347 -3824.000000 -394.236846
1826.386008 -3824.000000 -394.484070
1828.370670 -3824.000000 -394.731294
1830.355331 -3824.000000 -394.978519
1832.339992 -3824.000000 -395.225743
1834.324653 -3824.000000 -395.472967
1836.309314 -3824.000000 -395.720191
1838.293976 -3824.000000 -395.967416
1840.278637 -3824.000000 -396.214640
1842.263298 -3824.000000 -396.461864
1844.247959 -3824.000000 -396.709088
1846.232621 -3824.000000 -396.956313
1848.217282 -3824.000000 -397.203537
1850.201943 -3824.000000 -397.450761
1852.186604 -3824.000000 -397.697985
1854.171265 -3824.000000 -397.945210
1856.155927 -3824.000000 -398.192434
1858.140588 -3824.000000 -398.439658
1860.125249 -3824.000000 -398.686882
1862.109910 -3824.000000 -398.934106
1864.094572 -3824.000000 -399.181331
1866.079233 -3824.000000 -399.428555
1868.063894 -3824.000000 -399.675779
1870.048555 -3824.000000 -399.923003
1872.033216 -3824.000000 -400.170228
1874.017878 -3824.000000 -400.417452
1876.002539 -3824.000000 -400.664676
1877.987200 -3824.000000 -400.911900
1879.971861 -3824.000000 -401.159125
1881.956523 -3824.000000 -401.406349
1883.941184 -3824.000000 -401.653573
1885.925845 -3824.000000 -401.900797
1887.910506 -3824.000000 -402.148022
1889.895167 -3824.000000 -402.395246
1891.879829 -3824.000000 -402.642470
1893.864490 -3824.000000 -402.889694
1895.849151 -3824.000000 -403.136918
1897.833812 -3824.000000 -403.384143
1899.818474 -3824.000000 -403.631367
1901.803135 -3824.000000 -403.878591
1903.787796 -3824.000000 -404.125815
1905.772457 -3824.000000 -404.373040
1907.757119 -3824.000000 -404.620264
1909.741780 -3824.000000 -404.867488
1911.726441 -3824.000000 -405.114712
1913.711102 -3824.000000 -405.361937
1915.695763 -3824.000000 -405.609161
1917.680425 -3824.000000 -405.856385
1919.665086 -3824.000000 -406.103609
1921.649747 -3824.000000 -406.350834
1923.634408 -3824.000000 -406.598058
1925.619070 -3824.000000 -406.845282
1927.603731 -3824.000000 -407.092506
