2361.120227 -3297.278640 78.517676
2360.952427 -3298.285436 80.237619
2360.784628 -3299.292232 81.957563
2360.616829 -3300.299028 83.677506
2360.449029 -3301.305824 85.397449
2360.281230 -3302.312620 87.117393
2360.113431 -3303.319416 88.837336
2359.945631 -3304.326212 90.557279
2359.777832 -3305.333008 92.277223
2359.610033 -3306.339804 93.997166
2359.442233 -3307.346601 95.717109
2359.274434 -3308.353397 97.437053
2359.106635 -3309.360193 99.156996
2358.938835 -3310.366989 100.876939
2358.771036 -3311.373785 102.596882
2358.603237 -3312.380581 104.316826
2358.435437 -3313.387377 106.036769
2358.267638 -3314.394173 107.756712
2358.099838 -3315.400969 109.476656
2357.932039 -3316.407765 111.196599
2357.764240 -3317.414561 112.916542
2357.596440 -3318.421357 114.636486
2357.428641 -3319.428154 116.356429
2357.260842 -3320.434950 118.076372
2357.093042 -3321.441746 119.796316
2356.925243 -3322.448542 121.516259
2356.757444 -3323.455338 123.236202
2356.589644 -3324.462134 124.956146
2356.421845 -3325.468930 126.676089
2356.254046 -3326.475726 128.396032
2356.086246 -3327.482522 130.115976
2355.918447 -3328.489318 131.835919
2355.750648 -3329.496114 133.555862
2355.582848 -3330.502911 135.275805
2355.415049 -3331.509707 136.995749
2355.247250 -3332.516503 138.715692
2355.079450 -3333.523299 140.435635
2354.911651 -3334.530095 142.155579
2354.743852 -3335.536891 143.875522
2354.576052 -3336.543687 145.595465
2354.408253 -3337.550483 147.315409
2354.240453 -3338.557279 149.035352
2354.072654 -3339.564075 150.755295
2353.904855 -3340.570871 152.475239
2353.737055 -3341.577668 154.195182
2353.569256 -3342.584464 155.915125
2353.401457 -3343.591260 157.635069
2353.233657 -3344.598056 159.355012
2353.065858 -3345.604852 161.074955
2352.898059 -3346.611648 162.794899
2352.730259 -3347.618444 164.514842
2352.562460 -3348.625240 166.234785
2352.394661 -3349.632036 167.954729
2352.226861 -3350.638832 169.674672
2352.000000 -3352.000000 172.000000
2350.023945 -3352.000000 171.691447
2348.047889 -3352.000000 171.382893
2346.071834 -3352.000000 171.074340
2344.095779 -3352.000000 170.765786
2342.119723 -3352.000000 170.457233
2340.143668 -3352.000000 170.148679
2338.167613 -3352.000000 169.840126
2336.191557 -3352.000000 169.531572
2334.215502 -3352.000000 169.223019
2332.239447 -3352.000000 168.914465
2330.263391 -3352.000000 168.605912
2328.287336 -3352.000000 168.297358
2326.311280 -3352.000000 167.988805
2324.335225 -3352.000000 167.680251
2322.359170 -3352.000000 167.371698
2320.383114 -3352.000000 167.063144
2318.407059 -3352.000000 166.754591
2316.431004 -3352.000000 166.446037
2314.454948 -3352.000000 166.137484
2312.478893 -3352.000000 165.828930
2310.502838 -3352.000000 165.520377
2308.526782 -3352.000000 165.211823
2306.550727 -3352.000000 164.903270
2304.574672 -3352.000000 164.594716
2302.598616 -3352.000000 164.286163
2300.622561 -3352.000000 163.977609
2298.646506 -3352.000000 163.669056
2296.670450 -3352.000000 163.360502
2294.694395 -3352.000000 163.051949
2292.718340 -3352.000000 162.743395
2290.742284 -3352.000000 162.434842
2288.766229 -3352.000000 162.126288
2286.790173 -3352.000000 161.817735
2284.814118 -3352.000000 161.509181
2282.838063 -3352.000000 161.200628
2280.862007 -3352.000000 160.892074
2278.885952 -3352.000000 160.583521
2276.909897 -3352.000000 160.274967
2274.933841 -3352.000000 159.966414
2272.957786 -3352.000000 159.657860
2270.981731 -3352.000000 159.349307
2269.005675 -3352.000000 159.040753
2267.029620 -3352.000000 158.732200
2265.053565 -3352.000000 158.423646
2263.077509 -3352.000000 158.115093
2261.101454 -3352.000000 157.806539
2259.125399 -3352.000000 157.497986
2257.149343 -3352.000000 157.189432
2255.173288 -3352.000000 156.880879
2253.197233 -3352.000000 156.572325
2251.221177 -3352.000000 156.263772
2249.245122 -3352.000000 155.955218
2247.269067 -3352.000000 155.646665
2245.293011 -3352.000000 155.338111
2243.316956 -3352.000000 155.029558
2241.340900 -3352.000000 154.721004
2239.364845 -3352.000000 154.412451
2237.388790 -3352.000000 154.103897
2235.412734 -3352.000000 153.795344
2233.436679 -3352.000000 153.486790
2231.460624 -3352.000000 153.178237
2229.484568 -3352.000000 152.869683
2227.508513 -3352.000000 152.561130
2225.532458 -3352.000000 152.252576
2223.556402 -3352.000000 151.944023
2221.580347 -3352.000000 151.635469
2219.604292 -3352.000000 151.326916
2217.628236 -3352.000000 151.018362
2215.652181 -3352.000000 150.709809
2213.676126 -3352.000000 150.401255
2211.700070 -3352.000000 150.092702
2209.724015 -3352.000000 149.784149
2207.747960 -3352.000000 149.475595
2205.771904 -3352.000000 149.167042
2203.795849 -3352.000000 148.858488
2201.819793 -3352.000000 148.549935
2199.843738 -3352.000000 148.241381
2197.867683 -3352.000000 147.932828
2195.891627 -3352.000000 147.624274
2193.915572 -3352.000000 147.315721
2191.939517 -3352.000000 147.007167
2189.963461 -3352.000000 146.698614
2187.987406 -3352.000000 146.390060
2186.011351 -3352.000000 146.081507
2184.035295 -3352.000000 145.772953
2182.059240 -3352.000000 145.464400
2180.083185 -3352.000000 145.155846
2178.107129 -3352.000000 144.847293
2176.131074 -3352.000000 144.538739
2174.155019 -3352.000000 144.230186
2172.178963 -3352.000000 143.921632
2170.202908 -3352.000000 143.613079
2168.226853 -3352.000000 143.304525
2166.250797 -3352.000000 142.995972
2164.274742 -3352.000000 142.687418
2162.298687 -3352.000000 142.378865
2160.322631 -3352.000000 142.070311
2158.346576 -3352.000000 141.761758
2156.370520 -3352.000000 141.453204
2154.394465 -3352.000000 141.144651
2152.418410 -3352.000000 140.836097
2150.442354 -3352.000000 140.527544
2148.466299 -3352.000000 140.218990
2146.490244 -3352.000000 139.910437
2144.514188 -3352.000000 139.601883
2142.538133 -3352.000000 139.293330
2140.562078 -3352.000000 138.984776
2138.586022 -3352.000000 138.676223
2136.609967 -3352.000000 138.367669
2134.633912 -3352.000000 138.059116
2132.657856 -3352.000000 137.750562
2130.681801 -3352.000000 137.442009
2128.705746 -3352.000000 137.133455
2126.729690 -3352.000000 136.824902
2124.753635 -3352.000000 136.516348
2122.777580 -3352.000000 136.207795
2120.801524 -3352.000000 135.899241
2118.825469 -3352.000000 135.590688
2116.849413 -3352.000000 135.282134
2114.873358 -3352.000000 134.973581
2112.897303 -3352.000000 134.665027
2110.921247 -3352.000000 134.356474
2108.945192 -3352.000000 134.047920
2106.969137 -3352.000000 133.739367
2104.993081 -3352.000000 133.430813
2103.017026 -3352.000000 133.122260
2101.040971 -3352.000000 132.813706
2099.064915 -3352.000000 132.505153
2097.088860 -3352.000000 132.196599
2095.112805 -3352.000000 131.888046
2093.136749 -3352.000000 131.579492
2091.160694 -3352.000000 131.270939
2089.184639 -3352.000000 130.962385
2087.208583 -3352.000000 130.653832
2085.232528 -3352.000000 130.345278
2083.256473 -3352.000000 130.036725
2081.280417 -3352.000000 129.728171
2079.304362 -3352.000000 129.419618
2077.328307 -3352.000000 129.111064
2075.352251 -3352.000000 128.802511
2073.376196 -3352.000000 128.493957
2071.400140 -3352.000000 128.185404
2069.424085 -3352.000000 127.876850
2067.448030 -3352.000000 127.568297
2065.471974 -3352.000000 127.259744
2063.495919 -3352.000000 126.951190
2061.519864 -3352.000000 126.642637
2059.543808 -3352.000000 126.334083
2057.567753 -3352.000000 126.025530
2055.591698 -3352.000000 125.716976
2053.615642 -3352.000000 125.408423
2051.639587 -3352.000000 125.099869
2049.663532 -3352.000000 124.791316
2047.687476 -3352.000000 124.482762
2045.711421 -3352.000000 124.174209
2043.735366 -3352.000000 123.865655
2041.759310 -3352.000000 123.557102
2039.783255 -3352.000000 123.248548
2037.807200 -3352.000000 122.939995
2035.831144 -3352.000000 122.631441
2033.855089 -3352.000000 122.322888
2031.879033 -3352.000000 122.014334
2029.902978 -3352.000000 121.705781
2027.926923 -3352.000000 121.397227
2025.950867 -3352.000000 121.088674
2023.974812 -3352.000000 120.780120
2021.998757 -3352.000000 120.471567
2020.022701 -3352.000000 120.163013
2018.046646 -3352.000000 119.854460
2016.070591 -3352.000000 119.545906
2014.094535 -3352.000000 119.237353
2012.118480 -3352.000000 118.928799
2010.142425 -3352.000000 118.620246
2008.166369 -3352.000000 118.311692
2006.190314 -3352.000000 118.003139
2004.214259 -3352.000000 117.694585
2002.238203 -3352.000000 117.386032
2000.262148 -3352.000000 117.077478
1998.286093 -3352.000000 116.768925
1996.310037 -3352.000000 116.460371
1994.333982 -3352.000000 116.151818
1992.357926 -3352.000000 115.843264
1990.381871 -3352.000000 115.534711
1988.405816 -3352.000000 115.226157
1986.429760 -3352.000000 114.917604
1984.453705 -3352.000000 114.609050
1982.477650 -3352.000000 114.300497
1980.501594 -3352.000000 113.991943
1978.525539 -3352.000000 113.683390
1976.549484 -3352.000000 113.374836
1974.573428 -3352.000000 113.066283
1972.597373 -3352.000000 112.757729
1970.621318 -3352.000000 112.449176
1968.645262 -3352.000000 112.140622
1966.669207 -3352.000000 111.832069
1964.693152 -3352.000000 111.523515
1962.717096 -3352.000000 111.214962
1960.741041 -3352.000000 110.906408
1958.764986 -3352.000000 110.597855
1956.788930 -3352.000000 110.289301
1954.812875 -3352.000000 109.980748
1952.836820 -3352.000000 109.672194
1950.860764 -3352.000000 109.363641
1948.884709 -3352.000000 109.055087
1946.908653 -3352.000000 108.746534
1944.932598 -3352.000000 108.437980
1942.956543 -3352.000000 108.129427
1940.980487 -3352.000000 107.820873
1939.004432 -3352.000000 107.512320
1937.028377 -3352.000000 107.203766
1935.052321 -3352.000000 106.895213
1933.076266 -3352.000000 106.586659
1931.100211 -3352.000000 106.278106
1929.124155 -3352.000000 105.969552
1927.148100 -3352.000000 105.660999
1925.172045 -3352.000000 105.352446
1923.195989 -3352.000000 105.043892
1921.219934 -3352.000000 104.735339
1919.243879 -3352.000000 104.426785
1917.267823 -3352.000000 104.118232
1915.291768 -3352.000000 103.809678
1913.315713 -3352.000000 103.501125
1911.339657 -3352.000000 103.192571
1909.363602 -3352.000000 102.884018
1907.387546 -3352.000000 102.575464
1905.411491 -3352.000000 102.266911
1903.435436 -3352.000000 101.958357
1901.459380 -3352.000000 101.649804
1899.483325 -3352.000000 101.341250
1897.507270 -3352.000000 101.032697
1895.531214 -3352.000000 100.724143
1893.555159 -3352.000000 100.415590
1891.579104 -3352.000000 100.107036
1889.603048 -3352.000000 99.798483
1887.626993 -3352.000000 99.489929
1885.650938 -3352.000000 99.181376
1883.674882 -3352.000000 98.872822
1881.698827 -3352.000000 98.564269
1879.722772 -3352.000000 98.255715
1877.746716 -3352.000000 97.947162
1875.770661 -3352.000000 97.638608
1873.794606 -3352.000000 97.330055
1871.818550 -3352.000000 97.021501
1869.842495 -3352.000000 96.712948
1867.866440 -3352.000000 96.404394
1865.890384 -3352.000000 96.095841
1863.914329 -3352.000000 95.787287
1861.938273 -3352.000000 95.478734
1859.962218 -3352.000000 95.170180
1857.986163 -3352.000000 94.861627
1856.010107 -3352.000000 94.553073
1854.034052 -3352.000000 94.244520
1852.057997 -3352.000000 93.935966
1850.081941 -3352.000000 93.627413
1848.105886 -3352.000000 93.318859
1846.129831 -3352.000000 93.010306
1844.153775 -3352.000000 92.701752
1842.177720 -3352.000000 92.393199
1840.201665 -3352.000000 92.084645
1838.225609 -3352.000000 91.776092
1836.249554 -3352.000000 91.467538
1834.273499 -3352.000000 91.158985
1832.297443 -3352.000000 90.850431
1830.321388 -3352.000000 90.541878
1828.345333 -3352.000000 90.233324
1826.369277 -3352.000000 89.924771
1824.393222 -3352.000000 89.616217
1822.417166 -3352.000000 89.307664
1820.441111 -3352.000000 88.999110
1818.465056 -3352.000000 88.690557
1816.489000 -3352.000000 88.382003
1814.512945 -3352.000000 88.073450
1812.536890 -3352.000000 87.764896
1810.560834 -3352.000000 87.456343
1808.584779 -3352.000000 87.147789
1806.608724 -3352.000000 86.839236
1804.632668 -3352.000000 86.530682
1802.656613 -3352.000000 86.222129
1800.680558 -3352.000000 85.913575
1798.704502 -3352.000000 85.605022
1796.728447 -3352.000000 85.296468
1794.752392 -3352.000000 84.987915
1792.776336 -3352.000000 84.679361
1790.800281 -3352.000000 84.370808
1788.824226 -3352.000000 84.062254
1786.848170 -3352.000000 83.753701
1784.872115 -3352.000000 83.445148
1782.896060 -3352.000000 83.136594
1780.920004 -3352.000000 82.828041
1778.943949 -3352.000000 82.519487
1776.967893 -3352.000000 82.210934
1774.991838 -3352.000000 81.902380
1773.015783 -3352.000000 81.593827
1771.039727 -3352.000000 81.285273
1769.063672 -3352.000000 80.976720
1767.087617 -3352.000000 80.668166
1765.111561 -3352.000000 80.359613
1763.135506 -3352.000000 80.051059
1761.159451 -3352.000000 79.742506
1759.183395 -3352.000000 79.433952
1757.207340 -3352.000000 79.125399
1755.231285 -3352.000000 78.816845
1753.255229 -3352.000000 78.508292
1751.279174 -3352.000000 78.199738
1749.303119 -3352.000000 77.891185
1747.327063 -3352.000000 77.582631
1745.351008 -3352.000000 77.274078
1743.374953 -3352.000000 76.965524
1741.398897 -3352.000000 76.656971
1739.422842 -3352.000000 76.348417
1737.446786 -3352.000000 76.039864
1735.470731 -3352.000000 75.731310
1733.494676 -3352.000000 75.422757
1731.518620 -3352.000000 75.114203
1729.542565 -3352.000000 74.805650
1727.566510 -3352.000000 74.497096
1725.590454 -3352.000000 74.188543
1723.614399 -3352.000000 73.879989
1721.638344 -3352.000000 73.571436
1719.662288 -3352.000000 73.262882
1717.686233 -3352.000000 72.954329
1715.710178 -3352.000000 72.645775
1713.734122 -3352.000000 72.337222
1711.758067 -3352.000000 72.028668
1709.782012 -3352.000000 71.720115
1707.805956 -3352.000000 71.411561
1705.829901 -3352.000000 71.103008
1703.853846 -3352.000000 70.794454
1701.877790 -3352.000000 70.485901
1699.901735 -3352.000000 70.177347
1697.925680 -3352.000000 69.868794
1695.949624 -3352.000000 69.560240
1693.973569 -3352.000000 69.251687
1691.997513 -3352.000000 68.943133
1690.021458 -3352.000000 68.634580
1688.045403 -3352.000000 68.326026
1686.069347 -3352.000000 68.017473
1684.093292 -3352.000000 67.708919
1682.117237 -3352.000000 67.400366
1680.141181 -3352.000000 67.091812
1678.165126 -3352.000000 66.783259
1676.189071 -3352.000000 66.474705
1674.213015 -3352.000000 66.166152
1672.236960 -3352.000000 65.857598
1670.260905 -3352.000000 65.549045
1668.284849 -3352.000000 65.240491
1666.308794 -3352.000000 64.931938
1664.332739 -3352.000000 64.623384
1662.356683 -3352.000000 64.314831
1660.380628 -3352.000000 64.006277
1658.404573 -3352.000000 63.697724
1656.428517 -3352.000000 63.389170
1654.452462 -3352.000000 63.080617
1652.476406 -3352.000000 62.772063
1650.500351 -3352.000000 62.463510
1648.524296 -3352.000000 62.154956
1646.548240 -3352.000000 61.846403
1644.572185 -3352.000000 61.537849
1642.596130 -3352.000000 61.229296
1640.620074 -3352.000000 60.920743
1638.644019 -3352.000000 60.612189
1636.667964 -3352.000000 60.303636
1634.691908 -3352.000000 59.995082
1632.715853 -3352.000000 59.686529
1630.739798 -3352.000000 59.377975
1628.763742 -3352.000000 59.069422
1626.787687 -3352.000000 58.760868
1624.811632 -3352.000000 58.452315
1622.835576 -3352.000000 58.143761
1620.859521 -3352.000000 57.835208
1618.883466 -3352.000000 57.526654
1616.907410 -3352.000000 57.218101
1614.931355 -3352.000000 56.909547
1612.955300 -3352.000000 56.600994
1610.979244 -3352.000000 56.292440
1609.003189 -3352.000000 55.983887
1607.027133 -3352.000000 55.675333
1605.051078 -3352.000000 55.366780
1603.075023 -3352.000000 55.058226
1601.098967 -3352.000000 54.749673
1599.122912 -3352.000000 54.441119
1597.146857 -3352.000000 54.132566
1595.170801 -3352.000000 53.824012
1593.194746 -3352.000000 53.515459
1591.218691 -3352.000000 53.206905
1589.242635 -3352.000000 52.898352
1587.266580 -3352.000000 52.589798
1585.290525 -3352.000000 52.281245
1583.314469 -3352.000000 51.972691
1581.338414 -3352.000000 51.664138
1579.362359 -3352.000000 51.355584
1577.386303 -3352.000000 51.047031
1575.410248 -3352.000000 50.738477
1573.434193 -3352.000000 50.429924
1571.458137 -3352.000000 50.121370
1569.482082 -3352.000000 49.812817
1567.506026 -3352.000000 49.504263
1565.529971 -3352.000000 49.195710
1563.553916 -3352.000000 48.887156
1561.577860 -3352.000000 48.578603
1559.601805 -3352.000000 48.270049
1557.625750 -3352.000000 47.961496
1555.649694 -3352.000000 47.652942
1553.673639 -3352.000000 47.344389
1551.697584 -3352.000000 47.035835
1549.721528 -3352.000000 46.727282
1547.745473 -3352.000000 46.418728
1545.769418 -3352.000000 46.110175
1543.793362 -3352.000000 45.801621
1541.817307 -3352.000000 45.493068
1539.841252 -3352.000000 45.184514
1537.865196 -3352.000000 44.875961
1535.889141 -3352.000000 44.567407
1533.913086 -3352.000000 44.258854
1531.937030 -3352.000000 43.950300
1529.960975 -3352.000000 43.641747
1527.984920 -3352.000000 43.333193
1526.008864 -3352.000000 43.024640
1524.032809 -3352.000000 42.716086
1522.056753 -3352.000000 42.407533
1520.080698 -3352.000000 42.098979
1518.104643 -3352.000000 41.790426
1516.128587 -3352.000000 41.481872
1514.152532 -3352.000000 41.173319
1512.176477 -3352.000000 40.864765
1510.200421 -3352.000000 40.556212
1508.224366 -3352.000000 40.247658
1506.248311 -3352.000000 39.939105
1504.272255 -3352.000000 39.630551
1502.296200 -3352.000000 39.321998
1500.320145 -3352.000000 39.013445
1498.344089 -3352.000000 38.704891
1496.368034 -3352.000000 38.396338
1494.391979 -3352.000000 38.087784
1492.415923 -3352.000000 37.779231
1490.439868 -3352.000000 37.470677
1488.463813 -3352.000000 37.162124
1486.487757 -3352.000000 36.853570
1484.511702 -3352.000000 36.545017
1482.535646 -3352.000000 36.236463
1480.559591 -3352.000000 35.927910
1478.583536 -3352.000000 35.619356
1476.607480 -3352.000000 35.310803
1474.631425 -3352.000000 35.002249
1472.655370 -3352.000000 34.693696
1470.679314 -3352.000000 34.385142
1468.703259 -3352.000000 34.076589
1466.727204 -3352.000000 33.768035
1464.751148 -3352.000000 33.459482
1462.775093 -3352.000000 33.150928
1460.799038 -3352.000000 32.842375
1458.822982 -3352.000000 32.533821
1456.846927 -3352.000000 32.225268
1454.870872 -3352.000000 31.916714
1452.894816 -3352.000000 31.608161
1450.918761 -3352.000000 31.299607
1448.942706 -3352.000000 30.991054
1446.966650 -3352.000000 30.682500
1444.990595 -3352.000000 30.373947
1443.014540 -3352.000000 30.065393
1441.038484 -3352.000000 29.756840
1439.062429 -3352.000000 29.448286
1437.086373 -3352.000000 29.139733
1435.110318 -3352.000000 28.831179
1433.134263 -3352.000000 28.522626
1431.158207 -3352.000000 28.214072
1429.182152 -3352.000000 27.905519
1427.206097 -3352.000000 27.596965
1425.230041 -3352.000000 27.288412
1423.253986 -3352.000000 26.979858
1421.277931 -3352.000000 26.671305
1419.301875 -3352.000000 26.362751
1417.325820 -3352.000000 26.054198
1415.349765 -3352.000000 25.745644
1413.373709 -3352.000000 25.437091
1411.397654 -3352.000000 25.128537
1409.421599 -3352.000000 24.819984
1407.445543 -3352.000000 24.511430
1405.469488 -3352.000000 24.202877
1403.493433 -3352.000000 23.894323
1401.517377 -3352.000000 23.585770
1399.541322 -3352.000000 23.277216
1397.565266 -3352.000000 22.968663
1395.589211 -3352.000000 22.660109
1393.613156 -3352.000000 22.351556
1391.637100 -3352.000000 22.043002
1389.661045 -3352.000000 21.734449
1387.684990 -3352.000000 21.425895
1385.708934 -3352.000000 21.117342
1383.732879 -3352.000000 20.808788
1381.756824 -3352.000000 20.500235
1379.780768 -3352.000000 20.191681
1377.804713 -3352.000000 19.883128
1375.828658 -3352.000000 19.574574
1373.852602 -3352.000000 19.266021
1371.876547 -3352.000000 18.957467
1369.900492 -3352.000000 18.648914
1367.924436 -3352.000000 18.340360
1365.948381 -3352.000000 18.031807
1363.972326 -3352.000000 17.723253
1361.996270 -3352.000000 17.414700
1360.020215 -3352.000000 17.106147
1358.044159 -3352.000000 16.797593
1356.068104 -3352.000000 16.489040
1354.092049 -3352.000000 16.180486
1352.115993 -3352.000000 15.871933
1350.139938 -3352.000000 15.563379
1348.163883 -3352.000000 15.254826
1346.187827 -3352.000000 14.946272
1344.211772 -3352.000000 14.637719
1342.235717 -3352.000000 14.329165
1340.259661 -3352.000000 14.020612
1338.283606 -3352.000000 13.712058
1336.307551 -3352.000000 13.403505
1334.331495 -3352.000000 13.094951
1332.355440 -3352.000000 12.786398
1330.379385 -3352.000000 12.477844
1328.403329 -3352.000000 12.169291
1326.427274 -3352.000000 11.860737
1324.451219 -3352.000000 11.552184
1322.475163 -3352.000000 11.243630
1320.499108 -3352.000000 10.935077
1318.523053 -3352.000000 10.626523
1316.546997 -3352.000000 10.317970
1314.570942 -3352.000000 10.009416
1312.594886 -3352.000000 9.700863
1310.618831 -3352.000000 9.392309
1308.642776 -3352.000000 9.083756
1306.666720 -3352.000000 8.775202
1304.690665 -3352.000000 8.466649
1302.714610 -3352.000000 8.158095
1300.738554 -3352.000000 7.849542
1298.762499 -3352.000000 7.540988
1296.786444 -3352.000000 7.232435
1294.810388 -3352.000000 6.923881
1292.834333 -3352.000000 6.615328
1290.858278 -3352.000000 6.306774
1288.882222 -3352.000000 5.998221
1286.906167 -3352.000000 5.689667
1284.930112 -3352.000000 5.381114
1282.954056 -3352.000000 5.072560
1280.978001 -3352.000000 4.764007
1279.001946 -3352.000000 4.455453
1277.025890 -3352.000000 4.146900
1275.049835 -3352.000000 3.838346
1273.073779 -3352.000000 3.529793
1271.097724 -3352.000000 3.221239
1269.121669 -3352.000000 2.912686
1267.145613 -3352.000000 2.604132
1265.169558 -3352.000000 2.295579
1263.193503 -3352.000000 1.987025
1261.217447 -3352.000000 1.678472
1259.241392 -3352.000000 1.369918
1257.265337 -3352.000000 1.061365
1255.289281 -3352.000000 0.752811
1253.313226 -3352.000000 0.444258
1251.337171 -3352.000000 0.135704
1249.361115 -3352.000000 -0.172849
1247.385060 -3352.000000 -0.481403
1245.409005 -3352.000000 -0.789956
1243.432949 -3352.000000 -1.098510
1241.456894 -3352.000000 -1.407063
1239.480839 -3352.000000 -1.715617
1237.504783 -3352.000000 -2.024170
1235.528728 -3352.000000 -2.332724
1233.552673 -3352.000000 -2.641277
1231.576617 -3352.000000 -2.949831
1229.600562 -3352.000000 -3.258384
1227.624506 -3352.000000 -3.566938
1225.648451 -3352.000000 -3.875491
1223.672396 -3352.000000 -4.184045
1221.696340 -3352.000000 -4.492598
1219.720285 -3352.000000 -4.801151
1217.744230 -3352.000000 -5.109705
1215.768174 -3352.000000 -5.418258
1213.792119 -3352.000000 -5.726812
1211.816064 -3352.000000 -6.035365
1209.840008 -3352.000000 -6.343919
1207.863953 -3352.000000 -6.652472
1205.887898 -3352.000000 -6.961026
1203.911842 -3352.000000 -7.269579
1201.935787 -3352.000000 -7.578133
1199.959732 -3352.000000 -7.886686
1197.983676 -3352.000000 -8.195240
1196.007621 -3352.000000 -8.503793
1194.031566 -3352.000000 -8.812347
1192.055510 -3352.000000 -9.120900
1190.079455 -3352.000000 -9.429454
1188.103399 -3352.000000 -9.738007
1186.127344 -3352.000000 -10.046561
1184.151289 -3352.000000 -10.355114
1182.175233 -3352.000000 -10.663668
1180.199178 -3352.000000 -10.972221
1178.223123 -3352.000000 -11.280775
1176.247067 -3352.000000 -11.589328
1174.271012 -3352.000000 -11.897882
1172.294957 -3352.000000 -12.206435
1170.318901 -3352.000000 -12.514989
1168.342846 -3352.000000 -12.823542
1166.366791 -3352.000000 -13.132096
1164.390735 -3352.000000 -13.440649
1162.414680 -3352.000000 -13.749203
1160.438625 -3352.000000 -14.057756
1158.462569 -3352.000000 -14.366310
1156.486514 -3352.000000 -14.674863
1154.510459 -3352.000000 -14.983417
1152.534403 -3352.000000 -15.291970
1150.558348 -3352.000000 -15.600524
1148.000000 -3352.000000 -16.000000
1148.000000 -3352.000000 -18.000000
1148.000000 -3352.000000 -20.000000
1148.000000 -3352.000000 -22.000000
1148.000000 -3352.000000 -24.000000
1148.000000 -3352.000000 -26.000000
1148.000000 -3352.000000 -28.000000
1148.000000 -3352.000000 -30.000000
1148.000000 -3352.000000 -32.000000
1148.000000 -3352.000000 -34.000000
1148.000000 -3352.000000 -36.000000
1148.000000 -3352.000000 -38.000000
1148.000000 -3352.000000 -40.000000
1148.000000 -3352.000000 -42.000000
1148.000000 -3352.000000 -44.000000
1148.000000 -3352.000000 -46.000000
1148.000000 -3352.000000 -48.000000
1148.000000 -3352.000000 -50.000000
1148.000000 -3352.000000 -52.000000
1148.000000 -3352.000000 -54.000000
1148.000000 -3352.000000 -56.000000
1148.000000 -3352.000000 -58.000000
1148.000000 -3352.000000 -60.000000
1148.000000 -3352.000000 -62.000000
1148.000000 -3352.000000 -64.000000
1148.000000 -3352.000000 -66.000000
1148.000000 -3352.000000 -68.000000
1148.000000 -3352.000000 -70.000000
1148.000000 -3352.000000 -72.000000
1148.000000 -3352.000000 -74.000000
1148.000000 -3352.000000 -76.000000
1148.000000 -3352.000000 -78.000000
1148.000000 -3352.000000 -80.000000
1148.000000 -3352.000000 -82.000000
1148.000000 -3352.000000 -84.000000
1148.000000 -3352.000000 -86.000000
1148.000000 -3352.000000 -88.000000
1148.000000 -3352.000000 -90.000000
1148.000000 -3352.000000 -92.000000
1148.000000 -3352.000000 -94.000000
1148.000000 -3352.000000 -96.000000
1148.000000 -3352.000000 -98.000000
1148.000000 -3352.000000 -100.000000
1148.000000 -3352.000000 -102.000000
1148.000000 -3352.000000 -104.000000
1148.000000 -3352.000000 -106.000000
1148.000000 -3352.000000 -108.000000
1148.000000 -3352.000000 -110.000000
1148.000000 -3352.000000 -112.000000
1148.000000 -3352.000000 -114.000000
1148.000000 -3352.000000 -116.000000
1148.000000 -3352.000000 -118.000000
1148.000000 -3352.000000 -120.000000
1148.000000 -3352.000000 -122.000000
1148.000000 -3352.000000 -124.000000
1148.000000 -3352.000000 -128.000000
1147.771006 -3352.870178 -129.786155
1147.542011 -3353.740357 -131.572311
1147.313017 -3354.610535 -133.358466
1147.084023 -3355.480713 -135.144622
1146.855029 -3356.350892 -136.930777
1146.626034 -3357.221070 -138.716933
1146.397040 -3358.091248 -140.503088
1146.168046 -3358.961426 -142.289244
1145.939051 -3359.831605 -144.075399
1145.710057 -3360.701783 -145.861555
1145.481063 -3361.571961 -147.647710
1145.252069 -3362.442140 -149.433866
1145.023074 -3363.312318 -151.220021
1144.794080 -3364.182496 -153.006176
1144.565086 -3365.052675 -154.792332
1144.336091 -3365.922853 -156.578487
1144.107097 -3366.793031 -158.364643
1143.878103 -3367.663209 -160.150798
1143.649108 -3368.533388 -161.936954
1143.420114 -3369.403566 -163.723109
1143.191120 -3370.273744 -165.509265
1142.962126 -3371.143923 -167.295420
1142.733131 -3372.014101 -169.081576
1142.504137 -3372.884279 -170.867731
1142.275143 -3373.754458 -172.653887
1142.046148 -3374.624636 -174.440042
1141.817154 -3375.494814 -176.226197
1141.588160 -3376.364992 -178.012353
1141.359166 -3377.235171 -179.798508
1141.130171 -3378.105349 -181.584664
1140.901177 -3378.975527 -183.370819
1140.672183 -3379.845706 -185.156975
1140.443188 -3380.715884 -186.943130
1140.214194 -3381.586062 -188.729286
1139.985200 -3382.456241 -190.515441
1139.756206 -3383.326419 -192.301597
1139.527211 -3384.196597 -194.087752
1139.298217 -3385.066775 -195.873908
1139.069223 -3385.936954 -197.660063
1138.840228 -3386.807132 -199.446219
1138.611234 -3387.677310 -201.232374
1138.382240 -3388.547489 -203.018529
1138.153246 -3389.417667 -204.804685
1137.924251 -3390.287845 -206.590840
1137.695257 -3391.158024 -208.376996
1137.466263 -3392.028202 -210.163151
1137.237268 -3392.898380 -211.949307
1137.008274 -3393.768559 -213.735462
1136.779280 -3394.638737 -215.521618
1136.550285 -3395.508915 -217.307773
1136.321291 -3396.379093 -219.093929
1136.092297 -3397.249272 -220.880084
1135.863303 -3398.119450 -222.666240
1135.634308 -3398.989628 -224.452395
1135.405314 -3399.859807 -226.238550
1135.176320 -3400.729985 -228.024706
1134.947325 -3401.600163 -229.810861
1134.718331 -3402.470342 -231.597017
1134.489337 -3403.340520 -233.383172
1134.260343 -3404.210698 -235.169328
1134.031348 -3405.080876 -236.955483
1133.802354 -3405.951055 -238.741639
1133.573360 -3406.821233 -240.527794
1133.344365 -3407.691411 -242.313950
1133.115371 -3408.561590 -244.100105
1132.886377 -3409.431768 -245.886261
1132.657383 -3410.301946 -247.672416
1132.428388 -3411.172125 -249.458571
1132.199394 -3412.042303 -251.244727
1131.970400 -3412.912481 -253.030882
1131.741405 -3413.782659 -254.817038
1131.512411 -3414.652838 -256.603193
1131.283417 -3415.523016 -258.389349
1131.054423 -3416.393194 -260.175504
1130.825428 -3417.263373 -261.961660
1130.596434 -3418.133551 -263.747815
1130.367440 -3419.003729 -265.533971
1130.138445 -3419.873908 -267.320126
1129.909451 -3420.744086 -269.106282
1129.680457 -3421.614264 -270.892437
1129.451463 -3422.484442 -272.678592
1129.222468 -3423.354621 -274.464748
1128.993474 -3424.224799 -276.250903
1128.764480 -3425.094977 -278.037059
1128.535485 -3425.965156 -279.823214
1128.306491 -3426.835334 -281.609370
1128.077497 -3427.705512 -283.395525
1127.848502 -3428.575691 -285.181681
1127.619508 -3429.445869 -286.967836
1127.390514 -3430.316047 -288.753992
1127.161520 -3431.186226 -290.540147
1126.932525 -3432.056404 -292.326303
1126.703531 -3432.926582 -294.112458
1126.474537 -3433.796760 -295.898614
1126.245542 -3434.666939 -297.684769
1126.016548 -3435.537117 -299.470924
1125.787554 -3436.407295 -301.257080
1125.558560 -3437.277474 -303.043235
1125.329565 -3438.147652 -304.829391
1125.100571 -3439.017830 -306.615546
1124.871577 -3439.888009 -308.401702
1124.642582 -3440.758187 -310.187857
1124.413588 -3441.628365 -311.974013
1124.184594 -3442.498543 -313.760168
1123.955600 -3443.368722 -315.546324
1123.726605 -3444.238900 -317.332479
1123.497611 -3445.109078 -319.118635
1123.268617 -3445.979257 -320.904790
1123.039622 -3446.849435 -322.690945
1122.810628 -3447.719613 -324.477101
1122.581634 -3448.589792 -326.263256
1122.352640 -3449.459970 -328.049412
1122.123645 -3450.330148 -329.835567
1121.894651 -3451.200326 -331.621723
1121.665657 -3452.070505 -333.407878
1121.436662 -3452.940683 -335.194034
1121.207668 -3453.810861 -336.980189
1120.978674 -3454.681040 -338.766345
1120.749679 -3455.551218 -340.552500
1120.520685 -3456.421396 -342.338656
1120.291691 -3457.291575 -344.124811
1120.062697 -3458.161753 -345.910966
1119.833702 -3459.031931 -347.697122
1119.604708 -3459.902109 -349.483277
1119.375714 -3460.772288 -351.269433
1119.146719 -3461.642466 -353.055588
1118.917725 -3462.512644 -354.841744
1118.688731 -3463.382823 -356.627899
1118.459737 -3464.253001 -358.414055
1118.230742 -3465.123179 -360.200210
1118.001748 -3465.993358 -361.986366
1117.772754 -3466.863536 -363.772521
1117.543759 -3467.733714 -365.558677
1117.314765 -3468.603893 -367.344832
1117.085771 -3469.474071 -369.130987
1116.856777 -3470.344249 -370.917143
1116.627782 -3471.214427 -372.703298
1116.398788 -3472.084606 -374.489454
1116.169794 -3472.954784 -376.275609
1115.940799 -3473.824962 -378.061765
1115.711805 -3474.695141 -379.847920
1115.482811 -3475.565319 -381.634076
1115.253817 -3476.435497 -383.420231
1115.024822 -3477.305676 -385.206387
1114.795828 -3478.175854 -386.992542
1114.566834 -3479.046032 -388.778698
1114.337839 -3479.916210 -390.564853
1114.108845 -3480.786389 -392.351008
1113.879851 -3481.656567 -394.137164
1113.650856 -3482.526745 -395.923319
1113.421862 -3483.396924 -397.709475
1113.192868 -3484.267102 -399.495630
1112.963874 -3485.137280 -401.281786
1112.734879 -3486.007459 -403.067941
1112.505885 -3486.877637 -404.854097
1112.276891 -3487.747815 -406.640252
1112.047896 -3488.617993 -408.426408
1111.818902 -3489.488172 -410.212563
1111.589908 -3490.358350 -411.998719
1111.360914 -3491.228528 -413.784874
1111.131919 -3492.098707 -415.571030
1110.902925 -3492.968885 -417.357185
1110.673931 -3493.839063 -419.143340
1110.444936 -3494.709242 -420.929496
1110.215942 -3495.579420 -422.715651
1109.986948 -3496.449598 -424.501807
1109.757954 -3497.319776 -426.287962
1109.528959 -3498.189955 -428.074118
1109.299965 -3499.060133 -429.860273
1109.070971 -3499.930311 -431.646429
1108.841976 -3500.800490 -433.432584
1108.612982 -3501.670668 -435.218740
1108.383988 -3502.540846 -437.004895
1108.000000 -3504.000000 -440.000000
1108.000000 -3506.000000 -440.000000
1108.000000 -3508.000000 -440.000000
1108.000000 -3510.000000 -440.000000
1108.000000 -3512.000000 -440.000000
1108.000000 -3514.000000 -440.000000
1108.000000 -3516.000000 -440.000000
1108.000000 -3518.000000 -440.000000
1108.000000 -3520.000000 -440.000000
1108.000000 -3522.000000 -440.000000
1108.000000 -3524.000000 -440.000000
1108.000000 -3526.000000 -440.000000
1108.000000 -3528.000000 -440.000000
1108.000000 -3530.000000 -440.000000
1108.000000 -3532.000000 -440.000000
1108.000000 -3534.000000 -440.000000
1108.000000 -3536.000000 -440.000000
1108.000000 -3538.000000 -440.000000
1108.000000 -3540.000000 -440.000000
1108.000000 -3542.000000 -440.000000
1108.000000 -3544.000000 -440.000000
1108.000000 -3546.000000 -440.000000
1108.000000 -3548.000000 -440.000000
1108.000000 -3550.000000 -440.000000
1108.000000 -3552.000000 -440.000000
1108.000000 -3554.000000 -440.000000
1108.000000 -3556.000000 -440.000000
1108.000000 -3558.000000 -440.000000
1108.000000 -3560.000000 -440.000000
1108.000000 -3562.000000 -440.000000
1108.000000 -3564.000000 -440.000000
1108.000000 -3566.000000 -440.000000
1108.000000 -3568.000000 -440.000000
1108.000000 -3570.000000 -440.000000
1108.000000 -3572.000000 -440.000000
1108.000000 -3574.000000 -440.000000
1108.000000 -3576.000000 -440.000000
1108.000000 -3578.000000 -440.000000
1108.000000 -3580.000000 -440.000000
1108.000000 -3582.000000 -440.000000
1108.000000 -3584.000000 -440.000000
1108.000000 -3586.000000 -440.000000
1108.000000 -3588.000000 -440.000000
1108.000000 -3590.000000 -440.000000
1108.000000 -3592.000000 -440.000000
1108.000000 -3594.000000 -440.000000
1108.000000 -3596.000000 -440.000000
1108.000000 -3598.000000 -440.000000
1108.000000 -3600.000000 -440.000000
1108.000000 -3602.000000 -440.000000
1108.000000 -3604.000000 -440.000000
1108.000000 -3606.000000 -440.000000
1108.000000 -3608.000000 -440.000000
1108.000000 -3610.000000 -440.000000
1108.000000 -3612.000000 -440.000000
1108.000000 -3614.000000 -440.000000
1108.000000 -3616.000000 -440.000000
1108.000000 -3618.000000 -440.000000
1108.000000 -3620.000000 -440.000000
1108.000000 -3622.000000 -440.000000
1108.000000 -3624.000000 -440.000000
1108.000000 -3626.000000 -440.000000
1108.000000 -3628.000000 -440.000000
1108.000000 -3630.000000 -440.000000
1108.000000 -3632.000000 -440.000000
1108.000000 -3634.000000 -440.000000
1108.000000 -3636.000000 -440.000000
1108.000000 -3638.000000 -440.000000
1108.000000 -3640.000000 -440.000000
1108.000000 -3642.000000 -440.000000
1108.000000 -3644.000000 -440.000000
1108.000000 -3648.000000 -440.000000
1109.976855 -3648.303072 -440.013776
1111.953711 -3648.606144 -440.027552
1113.930566 -3648.909216 -440.041328
1115.907422 -3649.212288 -440.055104
1117.884277 -3649.515360 -440.068880
1119.861133 -3649.818432 -440.082656
1121.837988 -3650.121503 -440.096432
1123.814844 -3650.424575 -440.110208
1125.791699 -3650.727647 -440.123984
1127.768555 -3651.030719 -440.137760
1129.745410 -3651.333791 -440.151536
1131.722266 -3651.636863 -440.165312
1133.699121 -3651.939935 -440.179088
1135.675977 -3652.243007 -440.192864
1137.652832 -3652.546079 -440.206640
1139.629688 -3652.849151 -440.220416
1141.606543 -3653.152223 -440.234192
1143.583399 -3653.455295 -440.247968
1145.560254 -3653.758367 -440.261744
1147.537110 -3654.061438 -440.275520
1149.513965 -3654.364510 -440.289296
1151.490821 -3654.667582 -440.303072
1153.467676 -3654.970654 -440.316848
1155.444532 -3655.273726 -440.330624
1157.421387 -3655.576798 -440.344400
1159.398243 -3655.879870 -440.358176
1161.375098 -3656.182942 -440.371952
1163.351954 -3656.486014 -440.385728
1165.328809 -3656.789086 -440.399504
1167.305665 -3657.092158 -440.413280
1169.282520 -3657.395230 -440.427056
1171.259376 -3657.698302 -440.440832
1173.236231 -3658.001373 -440.454608
1175.213087 -3658.304445 -440.468384
1177.189942 -3658.607517 -440.482160
1179.166798 -3658.910589 -440.495936
1181.143653 -3659.213661 -440.509712
1183.120509 -3659.516733 -440.523488
1185.097364 -3659.819805 -440.537264
1187.074220 -3660.122877 -440.551040
1189.051075 -3660.425949 -440.564816
1191.027931 -3660.729021 -440.578592
1193.004786 -3661.032093 -440.592368
1194.981642 -3661.335165 -440.606144
1196.958497 -3661.638236 -440.619920
1198.935353 -3661.941308 -440.633696
1200.912208 -3662.244380 -440.647472
1202.889064 -3662.547452 -440.661248
1204.865919 -3662.850524 -440.675024
1206.842775 -3663.153596 -440.688800
1208.819630 -3663.456668 -440.702576
1210.796486 -3663.759740 -440.716352
1212.773341 -3664.062812 -440.730128
1214.750197 -3664.365884 -440.743904
1216.727052 -3664.668956 -440.757680
1218.703907 -3664.972028 -440.771456
1220.680763 -3665.275100 -440.785232
1222.657618 -3665.578171 -440.799008
1224.634474 -3665.881243 -440.812784
1226.611329 -3666.184315 -440.826560
1228.588185 -3666.487387 -440.840336
1230.565040 -3666.790459 -440.854112
1232.541896 -3667.093531 -440.867888
1234.518751 -3667.396603 -440.881664
1236.495607 -3667.699675 -440.895440
1238.472462 -3668.002747 -440.909216
1240.449318 -3668.305819 -440.922992
1242.426173 -3668.608891 -440.936768
1244.403029 -3668.911963 -440.950544
1246.379884 -3669.215035 -440.964320
1248.356740 -3669.518106 -440.978096
1250.333595 -3669.821178 -440.991872
1252.310451 -3670.124250 -441.005648
1254.287306 -3670.427322 -441.019424
1256.264162 -3670.730394 -441.033200
1258.241017 -3671.033466 -441.046976
1260.217873 -3671.336538 -441.060752
1262.194728 -3671.639610 -441.074528
1264.171584 -3671.942682 -441.088304
1266.148439 -3672.245754 -441.102080
1268.125295 -3672.548826 -441.115856
1270.102150 -3672.851898 -441.129632
1272.079006 -3673.154970 -441.143408
1274.055861 -3673.458041 -441.157184
1276.032717 -3673.761113 -441.170960
1278.009572 -3674.064185 -441.184736
1279.986428 -3674.367257 -441.198512
1281.963283 -3674.670329 -441.212288
1283.940139 -3674.973401 -441.226064
1285.916994 -3675.276473 -441.239840
1287.893850 -3675.579545 -441.253616
1289.870705 -3675.882617 -441.267392
1291.847561 -3676.185689 -441.281168
1293.824416 -3676.488761 -441.294944
1295.801272 -3676.791833 -441.308720
1297.778127 -3677.094905 -441.322496
1299.754983 -3677.397976 -441.336272
1301.731838 -3677.701048 -441.350048
1303.708694 -3678.004120 -441.363824
1305.685549 -3678.307192 -441.377600
1307.662405 -3678.610264 -441.391376
1309.639260 -3678.913336 -441.405152
1311.616116 -3679.216408 -441.418928
1313.592971 -3679.519480 -441.432704
1315.569827 -3679.822552 -441.446480
1317.546682 -3680.125624 -441.460256
1319.523538 -3680.428696 -441.474032
1321.500393 -3680.731768 -441.487808
1323.477249 -3681.034839 -441.501584
1325.454104 -3681.337911 -441.515360
1327.430959 -3681.640983 -441.529136
1329.407815 -3681.944055 -441.542912
1331.384670 -3682.247127 -441.556688
1333.361526 -3682.550199 -441.570464
1335.338381 -3682.853271 -441.584240
1337.315237 -3683.156343 -441.598016
1339.292092 -3683.459415 -441.611792
1341.268948 -3683.762487 -441.625568
1343.245803 -3684.065559 -441.639344
1345.222659 -3684.368631 -441.653120
1347.199514 -3684.671703 -441.666896
1349.176370 -3684.974774 -441.680672
1351.153225 -3685.277846 -441.694448
1353.130081 -3685.580918 -441.708224
1355.106936 -3685.883990 -441.722000
1357.083792 -3686.187062 -441.735776
1359.060647 -3686.490134 -441.749552
1361.037503 -3686.793206 -441.763328
1363.014358 -3687.096278 -441.777104
1364.991214 -3687.399350 -441.790880
1366.968069 -3687.702422 -441.804656
1368.944925 -3688.005494 -441.818432
1370.921780 -3688.308566 -441.832208
1372.898636 -3688.611638 -441.845984
1374.875491 -3688.914709 -441.859760
1376.852347 -3689.217781 -441.873536
1378.829202 -3689.520853 -441.887312
1380.806058 -3689.823925 -441.901088
1382.782913 -3690.126997 -441.914864
1384.759769 -3690.430069 -441.928640
1386.736624 -3690.733141 -441.942415
1388.713480 -3691.036213 -441.956191
1390.690335 -3691.339285 -441.969967
1392.667191 -3691.642357 -441.983743
1394.644046 -3691.945429 -441.997519
1396.620902 -3692.248501 -442.011295
1398.597757 -3692.551573 -442.025071
1400.574613 -3692.854644 -442.038847
1402.551468 -3693.157716 -442.052623
1404.528324 -3693.460788 -442.066399
1406.505179 -3693.763860 -442.080175
1408.482035 -3694.066932 -442.093951
1410.458890 -3694.370004 -442.107727
1412.435746 -3694.673076 -442.121503
1414.412601 -3694.976148 -442.135279
1416.389457 -3695.279220 -442.149055
1418.366312 -3695.582292 -442.162831
1420.343168 -3695.885364 -442.176607
1422.320023 -3696.188436 -442.190383
1424.296879 -3696.491508 -442.204159
1426.273734 -3696.794579 -442.217935
1428.250590 -3697.097651 -442.231711
1430.227445 -3697.400723 -442.245487
1432.204301 -3697.703795 -442.259263
1434.181156 -3698.006867 -442.273039
1436.158011 -3698.309939 -442.286815
1438.134867 -3698.613011 -442.300591
1440.111722 -3698.916083 -442.314367
1442.088578 -3699.219155 -442.328143
1444.065433 -3699.522227 -442.341919
1446.042289 -3699.825299 -442.355695
1448.019144 -3700.128371 -442.369471
1449.996000 -3700.431442 -442.383247
1451.972855 -3700.734514 -442.397023
1453.949711 -3701.037586 -442.410799
1455.926566 -3701.340658 -442.424575
1457.903422 -3701.643730 -442.438351
1459.880277 -3701.946802 -442.452127
1461.857133 -3702.249874 -442.465903
1463.833988 -3702.552946 -442.479679
1465.810844 -3702.856018 -442.493455
1467.787699 -3703.159090 -442.507231
1469.764555 -3703.462162 -442.521007
1471.741410 -3703.765234 -442.534783
1473.718266 -3704.068306 -442.548559
1475.695121 -3704.371377 -442.562335
1477.671977 -3704.674449 -442.576111
1479.648832 -3704.977521 -442.589887
1481.625688 -3705.280593 -442.603663
1483.602543 -3705.583665 -442.617439
1485.579399 -3705.886737 -442.631215
1487.556254 -3706.189809 -442.644991
1489.533110 -3706.492881 -442.658767
1491.509965 -3706.795953 -442.672543
1493.486821 -3707.099025 -442.686319
1495.463676 -3707.402097 -442.700095
1497.440532 -3707.705169 -442.713871
1499.417387 -3708.008241 -442.727647
1501.394243 -3708.311312 -442.741423
1503.371098 -3708.614384 -442.755199
1505.347954 -3708.917456 -442.768975
1507.324809 -3709.220528 -442.782751
1509.301665 -3709.523600 -442.796527
1511.278520 -3709.826672 -442.810303
1513.255376 -3710.129744 -442.824079
1515.232231 -3710.432816 -442.837855
1517.209087 -3710.735888 -442.851631
1519.185942 -3711.038960 -442.865407
1521.162798 -3711.342032 -442.879183
1523.139653 -3711.645104 -442.892959
1525.116509 -3711.948176 -442.906735
1527.093364 -3712.251247 -442.920511
1529.070220 -3712.554319 -442.934287
1531.047075 -3712.857391 -442.948063
1533.023931 -3713.160463 -442.961839
1535.000786 -3713.463535 -442.975615
1536.977642 -3713.766607 -442.989391
1538.954497 -3714.069679 -443.003167
1540.931353 -3714.372751 -443.016943
1542.908208 -3714.675823 -443.030719
1544.885063 -3714.978895 -443.044495
1546.861919 -3715.281967 -443.058271
1548.838774 -3715.585039 -443.072047
1550.815630 -3715.888111 -443.085823
1552.792485 -3716.191182 -443.099599
1554.769341 -3716.494254 -443.113375
1556.746196 -3716.797326 -443.127151
1558.723052 -3717.100398 -443.140927
1560.699907 -3717.403470 -443.154703
1562.676763 -3717.706542 -443.168479
1564.653618 -3718.009614 -443.182255
1566.630474 -3718.312686 -443.196031
1568.607329 -3718.615758 -443.209807
1570.584185 -3718.918830 -443.223583
1572.561040 -3719.221902 -443.237359
1574.537896 -3719.524974 -443.251135
1576.514751 -3719.828046 -443.264911
1578.491607 -3720.131117 -443.278687
1580.468462 -3720.434189 -443.292463
1582.445318 -3720.737261 -443.306239
1584.422173 -3721.040333 -443.320015
1586.399029 -3721.343405 -443.333791
1588.375884 -3721.646477 -443.347567
1590.352740 -3721.949549 -443.361343
1592.329595 -3722.252621 -443.375119
1594.306451 -3722.555693 -443.388895
1596.283306 -3722.858765 -443.402671
1598.260162 -3723.161837 -443.416447
1600.237017 -3723.464909 -443.430223
1602.213873 -3723.767980 -443.443999
1604.190728 -3724.071052 -443.457775
1606.167584 -3724.374124 -443.471551
1608.144439 -3724.677196 -443.485327
1610.121295 -3724.980268 -443.499103
1612.098150 -3725.283340 -443.512879
1614.075006 -3725.586412 -443.526655
1616.051861 -3725.889484 -443.540431
1618.028717 -3726.192556 -443.554207
1620.005572 -3726.495628 -443.567983
1621.982428 -3726.798700 -443.581759
1623.959283 -3727.101772 -443.595535
1625.936139 -3727.404844 -443.609311
1627.912994 -3727.707915 -443.623087
1629.889850 -3728.010987 -443.636863
1631.866705 -3728.314059 -443.650639
1633.843561 -3728.617131 -443.664415
1635.820416 -3728.920203 -443.678191
1637.797272 -3729.223275 -443.691967
1639.774127 -3729.526347 -443.705743
1641.750983 -3729.829419 -443.719519
1643.727838 -3730.132491 -443.733295
1645.704694 -3730.435563 -443.747071
1647.681549 -3730.738635 -443.760847
1649.658405 -3731.041707 -443.774623
1651.635260 -3731.344779 -443.788399
1653.612115 -3731.647850 -443.802175
1655.588971 -3731.950922 -443.815951
1657.565826 -3732.253994 -443.829727
1659.542682 -3732.557066 -443.843503
1661.519537 -3732.860138 -443.857279
1663.496393 -3733.163210 -443.871055
1665.473248 -3733.466282 -443.884831
1667.450104 -3733.769354 -443.898607
1669.426959 -3734.072426 -443.912383
1671.403815 -3734.375498 -443.926159
1673.380670 -3734.678570 -443.939935
1675.357526 -3734.981642 -443.953711
1677.334381 -3735.284714 -443.967487
1679.311237 -3735.587785 -443.981263
1681.288092 -3735.890857 -443.995039
1683.264948 -3736.193929 -444.008815
1685.241803 -3736.497001 -444.022591
1687.218659 -3736.800073 -444.036367
1689.195514 -3737.103145 -444.050143
1691.172370 -3737.406217 -444.063919
1693.149225 -3737.709289 -444.077695
1695.126081 -3738.012361 -444.091471
1697.102936 -3738.315433 -444.105247
1699.079792 -3738.618505 -444.119023
1701.056647 -3738.921577 -444.132799
1703.033503 -3739.224649 -444.146575
1705.010358 -3739.527720 -444.160351
1706.987214 -3739.830792 -444.174127
1708.964069 -3740.133864 -444.187903
1710.940925 -3740.436936 -444.201679
1712.917780 -3740.740008 -444.215455
1714.894636 -3741.043080 -444.229231
1716.871491 -3741.346152 -444.243007
1718.848347 -3741.649224 -444.256783
1720.825202 -3741.952296 -444.270559
1722.802058 -3742.255368 -444.284335
1724.778913 -3742.558440 -444.298111
1726.755769 -3742.861512 -444.311887
1728.732624 -3743.164583 -444.325663
1730.709480 -3743.467655 -444.339439
1732.686335 -3743.770727 -444.353215
1734.663191 -3744.073799 -444.366991
1736.640046 -3744.376871 -444.380767
1738.616902 -3744.679943 -444.394543
1740.593757 -3744.983015 -444.408319
1742.570613 -3745.286087 -444.422095
1744.547468 -3745.589159 -444.435871
1746.524324 -3745.892231 -444.449647
1748.501179 -3746.195303 -444.463423
1750.478035 -3746.498375 -444.477199
1752.454890 -3746.801447 -444.490975
1754.431746 -3747.104518 -444.504751
1756.408601 -3747.407590 -444.518527
1758.385457 -3747.710662 -444.532303
1760.362312 -3748.013734 -444.546079
1762.339167 -3748.316806 -444.559855
1764.316023 -3748.619878 -444.573631
1766.292878 -3748.922950 -444.587407
1768.269734 -3749.226022 -444.601183
1770.246589 -3749.529094 -444.614959
1772.223445 -3749.832166 -444.628735
1774.200300 -3750.135238 -444.642511
1776.177156 -3750.438310 -444.656287
1778.154011 -3750.741382 -444.670063
1780.130867 -3751.044453 -444.683839
1782.107722 -3751.347525 -444.697615
1784.084578 -3751.650597 -444.711391
1786.061433 -3751.953669 -444.725167
1788.038289 -3752.256741 -444.738943
1790.015144 -3752.559813 -444.752719
1791.992000 -3752.862885 -444.766495
1793.968855 -3753.165957 -444.780271
1795.945711 -3753.469029 -444.794047
1797.922566 -3753.772101 -444.807823
1799.899422 -3754.075173 -444.821599
1801.876277 -3754.378245 -444.835375
1803.853133 -3754.681317 -444.849151
1805.829988 -3754.984388 -444.862927
1807.806844 -3755.287460 -444.876703
1809.783699 -3755.590532 -444.890479
1811.760555 -3755.893604 -444.904255
1813.737410 -3756.196676 -444.918031
1815.714266 -3756.499748 -444.931807
1817.691121 -3756.802820 -444.945583
1819.667977 -3757.105892 -444.959359
1821.644832 -3757.408964 -444.973135
1823.621688 -3757.712036 -444.986911
1825.598543 -3758.015108 -445.000687
